178 175 176 203 220 227 229 230 229 228 227 228 220 211 200 201 182 165 174 177 171 163 153 143 172 197 209 211 204 196 197 193 179 157 133 123 107 99 103 112 112 110 104 109 122 117 109 98 97 97 93 86 81 88 96 105 117 116 120 138 146 144 160 165 165 177 186 194 191 190 193 199 207 209 210 211 211 211 210 206 203 199 197 196 190 182 177 172 166 160 157 153 147 142 139 135 131 128 127 126 122 115 110 106 101 97 92 89 88 83 79 74 69 64 59 56 54 52 52 54 56 61 67 72 80 88 93 104 115 127 139 149 159 168 175 177 179 181 180 180 178 177 179 175 177 180 180 171 171 172 177 182 189 184 177 158 146 150 142 143 140 138 128 125 119 135 142 149 157 165 185 193 199 195 186 188 182 179 182 188 189 193 195 195 195 195 191 186 179 174 172 166 161 157 149 141 137 127 120 115 106 101 97 96 92 89 86 79 77 77 77 82 86 88 88 90 87 81 74 69 64 64 57 47 39 30 31 34 34 39 44 45 46 49 47 45 41 39 37 34 37 35 34 34 31 28 27 30 31 30 26 21 23 30 32 28
171 175 179 191 213 226 229 229 227 223 221 224 221 216 209 202 175 162 163 185 178 174 153 141 153 180 191 196 201 193 192 186 178 157 131 117 106 98 101 105 108 102 104 107 111 112 111 101 99 98 93 83 74 81 88 93 104 116 125 135 141 139 150 152 147 153 166 176 178 175 180 189 199 202 204 204 207 207 206 204 202 203 202 199 193 186 179 175 169 162 158 155 150 142 138 133 130 127 128 124 117 111 107 104 99 96 91 89 86 80 77 72 68 64 59 56 52 50 50 50 54 59 65 70 78 86 90 101 112 124 137 146 158 168 176 180 181 184 185 188 186 186 182 179 178 184 181 180 182 186 189 193 195 186 174 157 144 144 152 152 149 144 141 134 128 128 126 128 135 147 166 172 181 177 175 179 182 180 181 184 185 191 193 193 192 192 188 182 177 174 168 163 160 152 143 138 133 123 115 107 101 92 90 89 89 86 78 73 71 73 72 79 88 89 90 88 82 77 72 68 61 59 50 41 34 30 31 32 34 37 40 42 42 42 41 40 39 35 34 35 37 35 34 30 28 28 27 28 27 27 27 26 27 28 35 32
166 176 185 195 213 225 228 228 226 221 215 216 220 215 211 199 186 174 168 184 182 175 159 141 146 158 172 193 203 198 191 184 172 152 131 115 104 93 90 98 102 96 97 103 104 105 108 105 99 96 92 82 71 77 80 86 98 112 116 117 123 126 137 141 143 142 147 156 161 160 163 181 195 200 200 198 197 197 199 203 202 206 204 199 194 188 180 176 171 163 159 156 150 142 139 133 128 127 125 120 113 109 105 102 98 93 90 88 83 80 74 69 67 64 59 54 50 49 47 47 50 56 63 68 76 83 89 98 109 120 134 143 157 165 176 182 185 186 186 190 190 188 185 184 181 182 178 182 188 191 191 194 191 181 175 166 161 162 162 163 157 152 150 141 138 135 120 119 128 142 158 161 162 160 160 169 178 181 180 180 185 189 190 190 190 190 188 180 175 169 161 156 155 143 139 134 127 118 106 98 93 89 89 88 87 78 72 70 70 70 72 80 88 88 89 86 80 76 69 66 61 54 44 39 34 30 27 28 30 32 34 39 40 37 37 37 37 34 32 34 39 39 35 30 27 26 26 26 24 23 24 27 31 30 34 32
162 175 184 195 211 221 225 224 222 215 203 194 208 210 214 211 208 196 186 185 178 179 168 155 159 161 178 190 197 194 182 174 165 152 139 124 108 91 82 90 91 96 96 104 108 104 101 103 98 91 96 89 79 79 73 72 88 103 108 109 113 118 122 127 139 137 140 143 152 156 159 176 191 196 197 195 192 191 194 200 203 206 202 198 193 186 180 175 169 162 159 155 149 142 138 131 127 125 122 116 110 107 103 99 97 91 89 86 80 76 71 67 65 61 56 50 47 45 45 45 47 52 59 66 72 80 88 94 106 117 128 141 153 162 174 180 184 186 191 193 191 189 184 182 181 179 171 172 177 186 189 191 188 181 182 180 176 174 171 171 158 155 160 159 147 140 126 119 126 140 152 146 144 142 146 158 165 169 172 176 180 186 191 189 188 185 184 177 172 163 158 155 152 141 133 127 118 108 93 89 89 86 86 84 81 73 70 67 69 67 70 81 89 89 87 80 72 69 65 56 49 41 35 35 30 27 24 23 23 24 27 30 31 31 31 32 35 35 34 34 39 39 35 31 30 28 28 26 27 24 26 30 30 30 37 37
152 166 184 191 204 217 218 219 212 204 192 185 198 207 213 206 203 207 199 189 182 179 152 149 156 155 166 169 176 168 161 152 157 149 143 126 105 97 90 88 94 99 99 103 113 105 101 98 97 93 92 92 89 87 80 72 84 96 104 101 103 108 118 123 130 138 142 144 147 155 160 176 182 190 189 185 186 185 185 193 199 201 200 196 191 185 179 174 166 161 158 153 147 141 135 128 124 122 117 111 107 103 99 96 92 89 88 83 78 72 68 67 63 56 50 47 45 42 42 44 46 49 56 63 69 77 86 90 102 112 124 138 147 159 171 179 182 186 190 193 191 188 184 181 180 177 166 163 168 179 186 185 180 178 182 186 181 182 185 180 162 152 163 169 159 146 125 119 119 126 133 137 135 133 140 150 158 161 165 165 171 181 182 184 182 184 181 180 172 162 157 153 147 139 130 120 109 99 90 88 82 82 82 87 80 71 71 68 66 63 66 73 84 88 84 80 72 63 59 49 42 35 34 30 26 23 21 20 19 21 24 26 26 26 26 27 31 39 37 35 41 41 37 32 32 31 31 31 28 28 28 31 31 32 41 41
141 159 178 190 206 213 214 217 209 201 193 193 192 199 202 197 201 212 202 194 193 181 152 138 131 130 135 140 141 135 135 126 134 141 141 124 105 101 105 101 103 99 97 102 119 115 107 105 101 96 90 91 94 90 87 81 88 91 99 92 93 104 117 120 120 125 137 141 143 155 165 174 178 181 177 175 181 181 180 186 194 195 195 193 189 184 178 171 163 159 153 149 142 138 131 125 119 115 110 107 103 98 94 91 89 88 83 79 76 70 67 65 61 54 49 45 44 41 41 42 44 47 52 59 66 73 81 89 98 108 120 135 144 156 166 176 181 186 190 192 191 186 180 178 174 172 168 162 162 169 182 185 181 179 182 189 189 186 189 180 161 149 156 161 156 142 130 124 118 124 127 128 128 126 134 144 157 161 163 161 162 171 174 172 174 177 176 177 172 165 159 153 146 138 124 113 103 92 88 83 78 77 80 84 79 71 71 69 64 59 57 61 70 78 74 71 69 63 57 49 41 34 28 24 21 19 19 19 17 19 21 20 19 20 21 23 27 34 37 40 46 46 40 35 34 31 30 30 30 31 34 41 46 49 52 61
127 142 168 188 200 206 208 208 204 198 192 200 195 195 186 190 195 209 201 189 185 179 159 141 128 128 125 123 119 126 133 126 131 141 125 113 110 117 111 110 106 104 108 110 117 118 120 120 105 98 92 93 91 89 88 87 88 90 97 92 91 103 110 113 112 122 131 139 147 157 165 165 175 176 169 168 171 176 178 186 193 193 193 190 185 180 175 166 161 156 149 143 140 134 126 119 113 109 105 102 97 93 90 89 87 83 79 76 72 68 66 64 57 50 47 44 42 40 40 41 42 45 49 54 63 69 77 86 93 105 118 133 142 152 161 169 177 181 186 188 189 186 178 172 165 163 160 157 159 163 177 180 181 182 180 182 190 195 198 188 172 159 147 153 147 135 125 127 126 125 123 119 123 124 133 143 155 158 157 152 150 152 156 157 162 171 168 165 162 158 155 150 144 135 120 110 101 89 80 74 73 73 74 78 77 73 70 65 56 56 54 56 65 67 68 68 64 57 50 46 39 31 24 21 19 17 17 17 15 15 15 15 15 16 20 23 26 31 35 41 46 46 39 35 32 34 34 32 32 32 37 47 61 70 70 72
130 138 158 180 195 197 200 200 200 196 188 190 188 189 181 180 190 191 197 192 194 185 176 155 141 141 135 123 115 119 128 137 141 142 130 124 125 135 120 118 116 115 116 124 118 125 131 125 113 104 105 99 92 91 96 91 91 89 88 88 89 93 96 104 109 122 140 143 157 169 163 159 163 175 169 165 163 172 180 188 193 193 192 189 181 176 169 162 157 150 143 139 134 126 119 113 107 103 98 94 91 89 88 84 81 78 74 71 68 65 64 61 54 49 46 42 40 39 39 40 41 42 46 50 59 67 73 82 89 102 113 125 138 143 153 160 169 177 180 181 184 181 174 163 159 155 153 152 155 156 165 166 176 182 179 177 186 193 197 188 178 165 144 149 155 135 127 130 117 111 113 104 108 123 126 139 144 149 142 134 130 131 140 147 156 163 163 159 155 149 143 141 141 133 120 109 98 86 74 70 73 70 70 76 74 73 69 63 56 52 54 57 59 57 63 66 61 49 42 40 34 24 19 16 19 19 17 16 16 15 13 14 14 16 19 23 26 30 35 42 45 47 42 35 35 37 40 37 35 37 45 56 70 80 82 77
138 146 161 180 191 193 198 203 198 186 174 174 172 172 172 175 178 174 195 203 209 200 194 179 163 156 147 146 131 112 119 134 143 146 141 137 139 137 123 117 110 122 128 131 120 126 140 139 134 122 116 107 105 107 107 101 93 90 83 78 73 80 88 91 107 125 146 153 161 172 166 160 158 166 171 163 162 169 181 188 186 189 190 185 179 174 163 157 152 144 140 134 127 119 112 107 101 96 91 89 88 84 81 78 76 73 70 68 65 59 57 56 49 46 44 41 39 37 37 39 39 40 44 49 57 67 71 78 88 97 109 118 130 138 144 152 160 169 175 176 179 174 163 157 150 146 142 143 141 139 143 149 162 177 176 171 180 188 185 172 160 159 155 156 163 146 141 133 113 102 102 97 99 117 127 133 137 141 131 120 110 112 123 138 147 159 159 152 144 142 141 140 138 131 118 108 97 83 70 66 69 68 69 73 69 67 64 63 52 46 52 54 52 52 52 52 49 42 35 30 24 17 15 15 16 20 19 17 17 15 14 15 15 15 17 23 24 30 37 45 47 50 46 39 35 40 45 42 41 44 61 70 73 78 76 72
143 153 166 180 193 199 207 207 207 196 180 176 160 159 169 172 174 160 180 206 215 215 203 190 178 168 176 162 141 126 131 149 156 156 157 165 165 142 122 108 110 115 126 138 133 141 144 141 140 130 117 116 110 118 117 107 90 84 71 67 65 63 72 87 103 119 138 155 163 169 166 153 150 160 161 153 159 168 179 179 181 188 190 184 178 169 158 150 144 139 134 126 119 112 106 99 92 89 88 84 81 78 76 72 70 68 66 64 59 56 52 50 46 44 41 40 37 37 37 37 37 39 42 47 54 66 71 78 88 92 103 109 119 128 138 144 155 162 166 169 169 165 157 143 138 141 141 141 134 126 122 128 141 160 157 156 166 175 171 163 152 143 150 153 159 152 144 118 106 98 92 91 98 116 124 124 134 130 116 108 99 103 115 130 139 149 153 144 140 133 137 137 128 122 112 104 91 86 72 66 66 66 67 66 66 66 64 59 56 47 54 56 56 50 49 45 41 39 30 21 15 13 13 15 16 17 16 16 15 14 14 14 15 15 17 23 26 31 35 42 45 49 47 40 39 41 47 49 47 63 72 81 78 80 72 69
144 158 172 180 191 206 207 211 213 201 188 180 158 153 155 171 176 172 179 199 211 219 214 198 195 194 194 169 152 143 150 161 172 171 168 186 185 171 141 123 112 109 118 127 140 146 142 143 143 128 123 124 120 122 118 107 89 83 73 65 63 52 64 82 92 109 120 141 156 158 157 144 139 143 155 158 162 166 176 176 182 190 191 186 177 163 152 142 139 133 125 118 111 105 98 91 89 84 80 77 74 71 69 67 65 63 61 59 56 52 49 46 44 42 40 37 37 35 35 37 37 39 41 46 52 64 70 76 83 90 98 106 115 122 131 139 146 157 159 158 159 158 147 140 135 134 134 133 131 122 111 115 128 146 143 146 155 156 157 159 153 144 143 149 142 147 144 124 109 99 89 89 96 116 120 123 133 128 111 103 97 99 111 120 128 134 139 131 127 127 128 127 123 112 105 97 89 82 73 68 64 66 67 61 64 64 65 64 61 61 63 66 61 50 47 46 42 32 21 15 11 10 11 12 12 14 14 13 13 13 12 13 14 16 20 27 31 32 39 41 46 47 44 41 41 46 56 59 64 72 81 83 88 83 78 74
147 156 175 184 196 207 209 208 206 196 196 195 178 165 158 165 169 168 171 196 211 213 213 207 208 207 202 182 168 158 163 168 174 180 188 191 191 184 165 144 130 115 112 118 131 138 147 146 139 130 128 130 126 122 117 109 91 86 80 72 63 52 65 79 89 103 116 133 140 139 141 135 133 139 141 152 163 176 181 177 180 188 188 182 172 159 144 138 130 124 117 111 104 97 90 88 82 78 73 70 68 65 63 61 57 57 56 54 52 49 47 44 41 39 39 37 35 35 35 37 37 40 42 46 52 61 68 74 81 89 98 107 110 118 128 139 142 149 149 146 149 144 137 133 135 131 126 124 128 126 119 120 120 137 141 147 150 158 150 160 174 163 153 157 147 155 146 128 112 107 92 92 96 113 120 124 130 122 109 102 93 92 103 110 120 126 127 122 119 124 122 117 110 103 98 90 82 78 71 64 59 64 66 61 63 64 68 69 66 68 70 67 57 52 45 42 37 27 17 12 9 8 8 9 10 11 12 11 11 11 12 13 14 16 21 28 35 40 41 44 50 52 46 45 41 47 63 67 71 77 86 87 88 87 87 89
152 160 177 189 191 196 206 209 198 200 207 199 188 168 161 159 166 163 174 197 206 213 213 213 213 211 207 195 181 186 189 180 184 184 192 192 198 192 182 158 137 120 112 122 137 141 144 146 135 119 118 124 130 120 113 106 94 89 86 78 69 63 64 71 82 94 107 115 127 127 138 138 134 126 134 147 171 181 182 181 182 186 180 177 165 153 141 131 124 117 110 104 96 90 87 80 74 71 67 65 61 57 56 52 52 50 50 50 49 47 46 44 40 37 34 35 35 35 37 37 39 40 42 45 50 59 67 73 81 89 101 106 113 124 135 141 144 149 146 142 144 139 133 128 126 125 123 123 133 131 133 134 134 138 152 166 161 163 162 174 178 179 165 163 161 161 159 142 130 116 115 108 105 115 113 120 118 115 106 94 90 89 92 105 116 119 118 117 113 116 116 108 94 91 89 79 72 69 65 57 56 57 63 64 66 65 69 72 69 68 66 61 50 46 40 39 31 24 16 11 9 6 5 7 8 8 10 10 9 10 11 12 14 17 23 28 35 41 41 45 56 57 54 52 47 49 57 68 77 86 87 89 89 89 90 99
156 168 179 188 182 191 203 208 204 204 207 203 182 159 149 146 155 156 163 188 197 213 217 220 215 214 217 211 208 207 202 197 199 194 200 198 199 192 177 153 139 130 124 130 139 137 134 140 135 113 110 113 123 125 118 110 98 91 89 80 72 66 61 65 76 88 93 110 122 123 131 138 128 119 126 146 163 175 175 169 175 176 169 162 156 143 134 124 117 110 103 96 90 86 79 73 69 65 61 56 52 50 49 47 46 46 46 46 47 46 45 42 40 35 32 32 34 35 37 39 41 42 45 47 54 59 66 72 80 89 99 108 116 126 135 140 146 147 144 141 140 131 126 123 122 118 124 133 139 139 140 146 158 147 158 171 172 171 178 172 177 186 190 184 178 185 182 174 155 138 140 130 115 116 110 115 113 108 92 88 87 87 87 92 106 113 116 115 109 105 103 98 87 81 77 67 61 61 56 52 50 49 52 61 68 68 71 71 68 66 57 49 42 40 34 31 26 20 16 11 8 5 4 6 7 7 8 9 9 10 11 12 14 19 24 28 35 40 41 46 57 54 57 57 54 49 59 73 81 88 89 89 89 90 102 110
153 166 179 188 181 181 188 193 200 202 198 198 185 163 155 157 163 162 162 179 190 203 210 215 221 222 221 217 219 212 207 204 211 209 211 201 197 186 178 159 144 135 131 141 137 123 120 126 128 120 116 111 111 119 117 116 105 101 96 89 82 73 67 64 71 80 88 102 113 120 128 126 116 110 123 144 159 157 159 161 159 157 152 146 143 135 127 118 110 104 96 90 87 79 72 67 63 56 50 47 45 45 44 44 42 41 41 42 44 44 42 41 40 35 32 31 34 35 39 41 42 45 46 47 52 59 67 73 80 89 96 105 111 124 130 135 141 143 142 141 137 123 116 111 116 120 138 150 153 146 152 165 174 166 169 172 180 188 192 179 178 182 192 188 185 196 189 186 171 157 160 141 119 110 103 104 99 91 87 86 82 84 87 90 99 104 109 107 102 98 93 83 72 67 59 52 50 52 49 47 50 49 50 54 64 64 67 71 70 67 57 46 37 31 28 27 24 19 15 11 8 6 4 5 5 6 7 7 9 9 10 12 15 19 26 34 44 49 50 50 56 56 56 52 54 57 68 77 81 86 87 89 102 108 125 139
147 165 178 181 177 176 175 182 193 195 192 186 180 163 147 158 162 162 163 168 182 188 200 203 209 217 218 216 217 213 209 201 206 212 207 196 196 185 178 165 144 128 125 126 126 117 116 123 125 127 123 118 111 111 111 108 94 92 89 83 80 71 65 63 72 81 89 92 108 119 127 130 118 109 116 131 142 143 146 146 141 141 138 137 134 127 120 113 105 96 90 88 81 74 68 61 54 47 45 42 41 40 39 39 37 37 37 39 39 40 40 39 39 35 34 34 35 39 41 42 45 46 46 47 52 63 68 74 83 88 92 102 109 117 124 126 131 138 137 133 128 124 113 111 117 126 137 144 153 152 152 160 177 192 179 172 179 189 194 194 192 195 191 188 191 194 191 177 169 158 158 141 124 109 101 96 92 87 87 86 81 81 87 90 89 91 94 94 90 90 86 71 64 54 47 46 45 46 45 46 50 49 50 52 63 65 64 67 69 64 52 44 35 30 26 23 21 19 13 10 7 5 5 5 5 5 6 7 7 8 9 11 14 17 23 32 45 59 64 65 63 63 61 57 57 66 71 78 82 88 90 98 108 113 133 147
146 160 171 166 166 165 166 179 182 186 186 180 169 156 142 150 143 141 159 177 185 180 189 186 181 200 206 207 212 209 203 195 190 194 195 192 188 177 174 160 138 113 106 109 112 113 108 113 127 137 134 126 111 108 107 94 82 78 76 73 69 61 52 54 66 80 89 93 102 113 127 131 116 108 112 120 135 141 139 130 122 122 122 125 125 119 112 107 99 90 88 82 76 70 64 54 49 44 41 40 37 35 34 32 32 32 34 34 34 35 35 35 37 37 37 39 40 41 44 45 46 46 47 49 57 66 73 80 84 88 91 99 105 107 110 116 125 128 126 124 127 130 119 113 116 119 124 127 141 153 152 152 176 190 181 162 166 177 190 201 204 197 191 194 194 192 194 179 168 158 149 127 123 107 98 91 87 82 86 88 84 81 84 83 81 82 84 84 84 86 79 68 59 47 45 46 45 47 49 47 47 47 46 50 63 67 65 65 66 59 49 44 37 31 27 24 21 17 13 10 6 5 4 4 5 5 5 6 6 7 8 10 12 14 20 31 45 57 64 66 66 68 69 67 64 70 81 87 89 92 101 106 112 118 127 141
146 160 168 159 159 162 163 169 171 179 172 161 149 131 123 126 128 134 150 171 177 177 185 179 176 194 200 207 213 211 204 200 190 176 179 178 174 169 159 138 110 98 92 96 99 102 107 107 120 135 135 124 115 111 103 89 72 66 61 61 64 57 52 54 61 72 83 93 99 101 108 108 101 105 104 106 126 134 124 115 108 108 110 113 115 111 106 102 94 89 83 77 70 66 59 50 45 40 37 34 32 30 30 28 28 30 31 31 31 32 32 34 37 39 40 42 44 45 46 47 49 49 49 50 61 69 81 88 84 88 92 101 99 102 107 113 120 118 116 118 125 138 134 130 124 116 112 113 128 139 150 157 168 175 172 159 163 171 181 194 193 185 184 184 194 201 199 181 162 142 131 123 117 96 89 89 83 81 86 86 84 80 80 77 77 72 71 73 76 78 76 67 59 50 44 45 44 46 47 45 41 41 41 47 57 63 63 56 61 59 49 42 35 32 30 27 26 19 12 9 6 4 4 4 4 4 5 5 4 5 7 9 11 13 19 30 42 49 57 65 67 71 74 72 71 74 87 90 94 101 112 119 125 131 131 144
139 150 160 156 160 162 161 160 166 171 161 152 139 120 117 118 124 128 144 157 161 169 174 175 179 185 195 210 210 209 208 206 186 152 149 144 140 140 128 107 98 89 89 89 89 89 92 96 106 120 128 118 111 104 93 80 68 57 49 52 56 49 44 46 50 59 71 78 89 98 98 92 90 91 92 98 113 116 113 107 105 104 105 107 108 106 103 96 90 88 82 74 68 61 52 46 41 37 32 30 28 27 26 26 26 27 28 28 30 31 32 34 37 40 42 44 45 47 49 50 50 52 52 56 65 73 86 89 89 89 90 96 92 97 109 115 117 115 119 125 126 138 141 139 122 118 118 123 124 138 157 161 163 175 172 161 172 176 177 174 165 161 171 175 184 190 186 172 149 130 116 113 103 89 81 81 82 81 81 86 82 80 78 79 73 69 69 72 71 71 73 65 56 50 44 44 42 46 45 44 41 37 39 46 50 59 56 61 64 66 56 44 37 31 30 26 21 16 12 7 6 4 2 2 2 2 4 2 2 5 6 9 12 15 20 30 40 46 52 61 66 71 73 73 76 81 90 99 101 106 112 126 127 127 126 141
128 141 155 157 161 165 163 155 153 156 156 146 133 115 107 108 122 128 141 146 150 152 150 153 159 168 174 192 198 203 196 191 174 139 123 127 123 109 102 93 90 89 88 87 80 79 82 88 97 113 124 119 105 92 83 71 66 54 47 46 42 42 40 42 47 54 68 73 84 93 92 89 84 86 91 94 102 104 103 103 105 104 103 105 105 102 99 93 89 87 81 74 67 61 50 44 39 34 31 27 26 24 23 24 24 26 27 27 28 30 32 35 39 41 44 45 46 47 49 49 50 52 57 65 70 76 83 89 89 89 89 90 90 89 94 105 113 118 123 130 128 127 139 142 134 130 127 127 135 162 171 161 161 169 169 166 171 166 163 152 147 147 158 177 184 182 180 157 127 107 98 96 84 70 68 78 83 80 77 80 78 74 76 72 68 64 67 72 72 71 71 59 49 44 39 37 40 42 41 40 40 37 39 45 50 54 57 66 69 72 63 49 42 32 27 21 19 14 10 7 6 4 2 2 2 1 1 1 2 4 6 9 13 15 20 30 35 40 47 56 63 68 72 78 82 88 93 104 109 112 116 125 125 123 122 131
131 138 149 159 166 163 162 152 141 143 144 137 125 115 103 99 109 113 123 130 138 141 133 130 141 166 169 177 184 188 185 181 156 131 110 115 126 112 101 98 90 88 84 80 73 76 78 83 92 107 115 111 98 90 76 63 57 52 47 41 41 44 39 39 46 57 72 80 90 99 91 88 80 81 84 87 90 92 93 102 104 102 102 104 102 99 97 92 89 87 81 74 68 61 52 44 39 32 28 27 24 23 21 21 24 24 26 27 28 30 32 37 40 41 44 45 46 47 47 47 49 54 59 68 76 80 79 81 83 89 90 89 88 83 88 91 105 113 116 117 116 122 141 150 146 141 141 137 152 172 177 169 162 157 157 161 162 162 159 149 157 165 163 163 176 176 168 143 123 103 96 88 77 70 72 79 81 78 81 88 83 74 72 67 67 63 66 70 71 66 61 54 49 41 37 34 39 40 37 35 35 35 39 42 46 49 54 59 67 70 61 49 45 39 32 23 16 11 9 8 6 4 2 1 1 2 1 1 2 4 5 8 13 17 20 27 35 41 45 49 57 65 67 71 78 84 91 98 110 115 119 124 124 126 126 134
126 134 141 153 161 159 152 140 128 130 130 126 116 110 101 92 98 105 108 111 119 125 116 110 126 158 160 158 166 161 165 161 142 119 107 117 130 120 107 102 89 84 82 77 71 69 70 79 88 101 106 101 90 84 71 59 52 54 56 47 44 41 41 45 47 65 78 88 94 96 90 82 74 72 73 81 82 89 93 99 101 101 102 103 101 98 94 92 89 88 83 77 70 64 54 45 40 34 28 27 26 24 23 21 24 26 27 28 30 31 34 37 40 41 44 45 47 46 46 47 52 57 63 70 77 77 74 77 82 87 89 89 88 88 84 87 93 105 111 108 104 118 138 142 135 141 144 143 146 165 171 175 169 152 141 146 166 163 161 166 175 185 174 165 160 157 141 130 110 93 89 79 78 79 80 82 77 71 78 83 74 72 73 71 67 63 65 65 64 56 46 44 42 40 37 39 40 37 35 32 31 35 39 42 47 47 42 49 65 68 65 57 49 42 34 26 16 12 9 9 7 5 2 1 1 2 2 1 2 4 5 8 12 17 24 30 35 45 46 50 54 59 61 65 70 78 89 96 109 112 118 122 130 139 141 149
123 131 140 144 146 152 146 133 122 119 118 115 106 101 97 93 90 90 99 103 104 101 101 106 115 140 150 157 158 150 143 141 137 127 123 130 138 123 112 105 90 88 84 73 65 61 68 81 89 97 104 102 88 80 72 67 63 57 57 56 56 50 49 52 59 73 88 91 98 99 94 84 77 76 80 86 86 89 92 93 96 99 103 103 102 98 96 93 90 89 87 80 73 67 59 49 41 35 31 28 27 26 24 23 24 27 30 30 31 32 35 37 40 42 45 47 50 49 47 49 54 59 65 70 73 71 71 74 81 84 84 84 87 87 84 83 88 97 99 99 104 108 123 137 138 146 138 141 143 159 158 169 162 141 126 133 157 168 162 174 185 199 186 166 150 141 126 115 99 92 89 81 74 78 79 79 76 71 68 68 68 65 65 68 67 63 61 59 52 49 41 40 40 37 34 37 37 35 34 31 28 31 31 32 39 40 35 45 56 64 63 56 49 45 35 30 21 16 14 11 8 5 2 2 2 2 2 1 1 2 5 8 12 20 28 34 41 49 49 50 50 52 56 63 65 73 87 94 107 112 119 126 138 143 147 158
115 123 134 142 143 146 139 125 115 111 111 106 99 93 93 94 91 88 88 88 84 86 88 91 111 125 139 147 137 134 125 120 122 128 125 123 127 117 111 103 90 89 83 71 59 57 67 82 90 94 101 96 88 83 77 74 68 63 56 59 61 65 57 57 64 77 89 93 104 102 99 89 89 89 90 90 89 90 96 96 98 104 104 104 103 101 99 97 94 92 89 86 78 71 66 56 46 40 34 31 28 27 27 27 27 28 31 32 32 35 37 40 41 42 46 47 50 52 54 61 61 64 70 70 71 72 74 79 80 79 83 86 88 86 89 88 82 87 90 90 99 107 113 124 138 149 141 134 140 143 133 138 137 131 127 139 146 160 168 178 189 197 179 160 144 133 113 106 98 93 90 83 79 82 84 81 82 76 67 69 68 56 61 65 69 66 56 52 46 45 34 34 40 37 34 35 37 40 35 30 30 30 30 28 32 32 30 40 56 61 61 61 56 52 42 39 30 23 19 14 10 8 6 4 2 2 2 2 2 4 7 9 14 21 28 39 47 49 49 47 52 54 59 64 69 78 83 90 103 115 118 127 139 143 149 161
108 112 126 140 142 140 128 117 111 108 105 97 94 93 91 92 91 87 79 73 71 73 74 83 101 113 122 123 123 120 113 108 109 109 112 112 109 104 101 89 87 88 79 65 52 52 67 79 88 90 91 89 84 78 73 73 67 64 56 50 54 59 56 56 66 74 86 99 105 101 99 93 92 97 93 89 90 91 94 97 103 106 106 107 106 104 105 104 104 102 94 89 83 78 72 65 52 44 37 32 31 30 30 30 31 32 35 35 35 39 40 41 44 44 46 49 52 56 59 66 70 68 69 69 73 78 80 84 83 80 84 89 89 89 90 90 83 79 87 90 96 103 103 115 128 138 138 125 130 126 115 116 117 123 128 139 149 157 172 178 184 188 168 152 140 119 103 105 101 96 90 89 89 90 90 87 86 79 71 67 66 56 57 64 69 68 66 57 47 45 34 32 42 42 40 40 39 40 35 31 28 27 27 27 31 28 27 35 46 61 63 64 63 59 49 44 37 30 27 19 14 12 10 7 5 5 5 4 4 6 8 11 16 23 34 41 46 49 49 50 54 59 64 70 78 82 84 89 102 111 117 126 135 144 155 162
103 106 124 137 137 131 120 109 102 98 99 93 94 94 91 90 88 81 72 64 65 69 69 74 90 105 115 116 117 103 97 98 102 92 92 91 89 88 86 78 79 78 69 57 47 50 64 74 84 84 83 78 77 74 73 70 64 57 52 50 52 54 54 50 59 68 80 97 104 102 104 101 98 99 98 89 90 91 93 99 104 105 109 111 110 110 111 111 111 108 99 92 89 84 78 69 59 49 41 39 37 35 34 34 35 37 40 41 42 42 42 42 42 45 46 47 52 56 59 67 74 74 73 72 76 83 89 87 88 89 88 89 86 88 89 88 84 81 82 91 101 103 99 109 128 131 123 111 112 117 103 98 108 118 122 115 123 138 160 172 176 163 146 141 134 117 99 99 98 103 97 96 96 98 92 88 82 79 72 63 57 56 64 65 66 67 66 54 46 44 35 39 44 45 50 45 40 42 39 32 32 28 27 26 26 28 30 32 40 54 52 61 61 61 52 47 47 41 35 26 19 15 15 12 9 7 7 7 7 7 9 12 16 27 40 44 49 54 54 54 63 69 71 78 82 82 82 88 97 105 115 126 137 147 161 171
102 107 118 128 128 128 120 106 96 93 94 91 94 94 92 88 80 79 72 67 72 76 72 70 81 90 105 106 107 99 90 96 90 81 76 80 83 78 71 65 65 63 64 49 41 40 47 65 73 74 77 73 72 70 69 65 63 56 47 45 45 42 45 47 50 66 77 90 98 99 105 105 104 105 101 94 97 97 101 104 107 110 117 123 120 119 117 117 116 111 107 103 96 90 84 76 67 57 49 44 41 39 35 32 39 42 44 46 47 44 44 42 42 46 50 54 59 64 65 68 74 74 73 72 72 77 87 88 91 93 89 89 83 86 88 84 80 74 79 89 91 89 88 96 108 106 107 102 90 92 90 97 113 118 123 112 111 125 146 159 152 141 131 130 118 109 91 88 94 101 99 93 91 94 93 90 84 84 80 67 61 59 65 68 63 64 65 50 44 42 40 41 42 47 50 44 41 45 40 35 31 28 27 26 23 23 26 28 39 42 46 56 63 68 61 61 61 56 45 34 28 21 19 17 13 12 11 11 12 10 12 15 21 30 42 46 52 61 61 59 65 72 72 78 81 82 79 83 89 99 116 125 139 153 175 180
102 105 113 123 120 118 116 106 96 91 90 89 92 97 93 86 78 79 74 73 78 79 72 71 78 89 91 88 89 90 89 87 71 61 59 66 68 69 63 50 49 46 50 47 39 35 37 50 67 71 74 72 70 68 65 61 57 50 44 41 41 39 39 41 46 65 78 89 99 102 106 111 111 115 107 103 109 107 107 112 117 122 128 135 133 128 125 124 122 116 115 112 106 99 90 84 76 67 59 52 47 44 39 37 41 45 49 50 52 49 45 42 42 49 59 64 69 73 71 71 71 73 73 70 70 71 77 88 93 99 93 88 79 83 87 88 84 77 79 90 88 76 69 71 87 88 90 88 76 80 90 105 120 131 133 128 116 125 141 139 133 127 119 113 104 98 89 88 99 104 94 91 92 93 93 89 84 83 82 73 66 64 64 68 64 65 65 57 47 42 39 42 47 52 47 44 45 49 42 37 30 28 30 26 21 19 20 21 26 32 39 44 63 72 69 69 68 64 50 39 34 32 28 23 19 17 17 16 17 15 16 20 26 31 39 45 54 61 66 67 69 76 77 79 82 83 81 81 87 98 113 123 140 161 181 192
101 103 107 113 109 105 107 101 93 90 89 89 89 90 89 88 79 81 82 82 79 74 72 78 81 87 82 79 82 78 73 70 63 54 56 63 59 56 50 44 42 44 44 41 39 39 40 46 56 61 66 67 66 65 64 57 54 47 41 39 35 35 37 44 49 64 78 88 90 97 104 113 115 116 115 111 116 117 115 122 133 141 149 146 141 140 139 139 137 128 126 124 117 108 98 89 83 74 67 63 57 49 44 41 42 46 54 57 57 54 49 45 46 50 63 68 72 78 77 73 70 72 76 71 68 70 76 86 90 101 101 90 88 88 89 90 98 91 87 89 83 73 66 63 74 82 88 87 73 79 96 110 122 139 142 127 109 119 135 133 133 123 113 111 99 94 90 89 97 107 96 91 96 94 91 90 89 90 82 68 56 57 63 63 57 64 63 59 46 41 35 37 46 49 47 45 41 45 41 39 34 34 28 24 23 20 19 19 20 26 30 42 64 68 67 72 72 67 52 44 39 40 40 30 23 20 19 17 21 21 21 27 31 39 41 47 59 64 67 74 77 79 84 84 84 86 88 88 89 97 111 120 142 169 186 197
97 101 105 107 102 94 96 97 92 91 90 88 89 87 87 82 74 79 83 81 78 73 78 79 79 74 74 77 73 67 57 61 54 49 52 59 59 57 50 47 47 44 42 41 42 42 42 44 50 54 59 61 63 61 57 56 49 46 44 37 34 37 39 45 50 57 69 77 84 89 99 113 123 122 122 128 127 122 123 133 147 157 166 161 155 153 153 152 146 141 139 137 128 118 107 96 89 82 74 69 67 56 46 47 46 49 54 56 59 57 54 46 47 50 57 66 72 77 79 72 70 71 74 69 69 71 70 72 80 88 89 89 87 88 96 106 115 111 97 92 88 74 65 59 71 83 88 81 81 89 103 117 122 133 139 123 112 115 119 123 123 120 124 117 105 92 90 92 98 103 101 92 93 92 94 97 98 92 84 68 56 61 61 61 59 63 56 50 42 35 32 35 45 50 52 49 44 42 42 41 40 35 30 26 24 21 20 20 20 23 30 41 59 65 65 70 74 68 56 47 44 46 45 39 27 23 20 19 23 27 30 32 40 44 45 49 59 63 68 77 78 82 87 88 88 88 92 93 93 103 112 126 147 176 191 199
91 98 102 102 97 89 89 90 90 90 90 88 88 84 80 77 73 76 80 78 73 71 77 77 71 66 67 72 67 56 45 45 46 54 59 59 61 61 57 59 50 45 40 39 40 44 45 44 44 44 47 52 52 49 49 47 46 44 41 34 31 34 37 37 41 47 59 66 77 83 90 104 122 131 138 143 139 133 135 144 163 179 189 188 182 177 174 166 159 155 149 144 138 126 115 105 96 89 82 76 71 63 52 54 52 49 50 54 61 59 54 49 50 50 52 57 69 70 72 69 67 70 73 69 64 65 63 57 64 70 74 78 81 90 102 115 125 125 110 93 88 88 74 66 68 72 82 80 84 91 103 109 125 137 141 127 112 109 117 120 124 126 134 124 113 105 102 102 98 96 92 89 91 93 98 102 106 98 87 71 65 61 50 54 63 64 54 47 41 34 32 34 44 49 50 52 47 50 49 42 41 37 34 31 28 26 26 24 21 24 34 41 50 52 57 64 63 59 54 47 46 52 45 37 31 21 17 20 24 31 40 44 49 47 45 50 63 66 72 79 81 86 89 90 91 92 99 102 103 108 118 135 153 179 194 204
89 92 96 93 90 88 88 88 86 87 88 83 83 81 73 73 70 70 73 72 70 66 72 76 72 68 68 68 64 61 49 42 42 52 52 52 54 59 57 63 57 47 40 34 32 37 39 41 41 42 44 44 45 42 44 40 39 37 32 28 27 28 31 34 39 45 57 63 68 76 87 91 110 126 135 140 141 140 143 158 179 196 200 202 200 193 184 175 171 171 162 153 144 137 125 113 106 96 89 84 76 68 59 57 54 54 54 59 64 61 52 45 42 42 44 50 63 63 67 67 63 64 64 64 61 57 54 50 61 69 70 73 83 90 98 120 124 125 115 94 99 101 84 77 73 69 77 84 90 88 92 104 127 141 152 139 119 117 120 122 126 128 137 126 113 105 107 105 96 89 88 89 89 92 99 103 109 107 96 88 73 61 46 46 59 59 59 54 42 37 40 40 47 52 56 64 59 56 54 52 44 35 35 37 34 30 28 26 23 23 30 40 46 50 56 59 54 47 47 47 45 46 41 34 27 21 16 14 17 26 37 45 50 54 52 59 65 68 77 84 87 88 90 91 97 99 104 108 110 116 127 144 163 186 198 210
87 89 91 90 89 84 84 81 79 80 78 77 76 74 72 70 66 65 68 68 66 66 71 79 73 69 68 66 65 65 61 44 42 45 47 49 59 63 63 63 61 50 42 35 30 34 32 35 39 37 37 39 40 39 39 34 34 31 27 21 21 24 27 32 39 45 50 57 63 70 80 88 99 119 130 133 141 147 162 174 188 200 206 208 210 202 190 184 182 179 171 160 155 146 137 125 116 107 98 89 83 74 67 59 56 52 50 56 59 47 42 37 32 35 35 44 52 52 56 56 50 52 54 47 50 57 50 52 59 66 67 73 81 88 98 118 123 123 117 111 106 106 93 89 83 77 74 86 90 91 97 109 128 143 144 140 127 130 131 126 128 126 126 116 110 102 102 96 90 89 89 93 92 96 106 111 122 122 110 102 87 66 52 49 64 64 67 64 47 41 42 46 50 63 68 65 64 56 59 56 50 41 40 44 40 37 35 31 27 24 30 35 44 45 50 56 49 42 40 40 41 40 37 28 26 21 15 12 14 21 30 40 47 57 63 63 65 69 79 86 89 91 94 101 106 106 113 117 119 127 143 155 172 191 204 215
86 89 90 90 90 88 83 80 76 72 72 73 73 71 69 66 66 67 66 70 72 73 77 82 83 76 71 71 72 71 70 57 46 45 49 59 66 66 68 68 59 47 42 37 31 32 31 31 32 35 32 32 34 32 34 32 30 27 21 19 19 21 28 35 41 46 47 56 63 66 72 84 94 115 131 137 144 159 175 184 197 206 210 213 214 210 200 195 194 186 175 168 161 155 147 138 125 115 105 94 88 78 71 61 56 57 54 50 52 42 32 30 28 27 30 32 40 44 47 45 44 44 42 40 47 57 54 54 57 64 68 70 73 86 103 116 126 131 120 113 104 108 98 89 80 73 66 78 89 90 105 116 120 125 130 139 140 141 131 124 122 119 117 105 101 92 90 90 92 91 93 104 104 108 116 122 127 120 118 113 101 82 72 65 69 77 76 66 49 45 45 52 57 68 72 68 67 63 64 57 47 40 41 42 40 37 35 31 31 28 28 34 40 40 45 49 42 35 32 31 32 30 28 26 26 20 15 15 16 21 28 37 49 56 64 65 66 72 81 87 91 99 107 116 120 123 128 131 137 142 156 161 178 194 207 217
83 89 90 89 90 89 84 80 76 73 70 71 71 68 67 65 65 68 69 72 76 86 89 94 97 88 86 84 83 81 74 68 69 65 64 67 72 71 70 73 65 52 47 40 35 31 30 26 30 31 30 31 34 32 32 34 27 24 20 19 17 20 27 35 40 44 42 49 59 66 74 88 98 117 134 141 152 169 182 195 202 204 211 216 218 217 213 207 202 192 179 174 162 159 153 141 128 119 112 102 90 84 73 66 66 65 57 49 46 40 32 30 27 26 28 27 31 34 34 34 35 37 39 42 46 49 46 50 52 57 56 52 57 71 92 106 120 130 128 122 112 107 99 90 82 76 69 72 86 90 109 122 122 119 128 137 140 137 131 137 130 122 115 103 99 92 88 88 91 98 103 111 113 119 130 127 126 117 123 122 112 97 89 81 78 87 86 71 63 61 52 56 63 76 79 71 70 65 65 54 44 39 34 32 31 32 31 31 31 31 30 34 37 39 41 41 34 28 27 26 27 24 20 21 21 19 15 15 15 19 21 30 42 52 59 61 69 80 90 94 106 111 120 130 139 142 143 146 155 159 165 172 184 198 209 219
82 87 88 88 89 88 87 82 80 77 73 72 72 69 66 66 67 69 72 78 83 94 104 112 108 103 99 92 88 89 88 81 83 80 74 76 78 77 72 71 65 56 52 42 35 32 31 28 31 30 26 30 34 31 31 30 23 21 20 17 17 20 28 37 40 44 44 45 54 66 80 89 107 125 139 156 168 181 194 196 200 207 213 219 222 222 221 218 214 204 190 179 175 165 157 146 131 123 118 110 99 89 81 73 73 69 63 49 44 39 32 31 28 24 26 27 30 31 31 30 31 35 39 45 46 44 44 45 47 49 44 45 50 68 87 93 111 126 135 137 118 105 94 90 88 74 68 68 68 83 99 116 113 119 123 120 116 111 120 126 127 122 107 97 91 89 86 89 93 97 107 113 116 118 127 133 127 125 126 131 130 122 112 93 91 92 88 77 71 71 64 63 73 86 90 88 74 64 63 54 44 34 27 24 24 27 27 30 30 30 31 34 34 35 35 28 23 21 21 20 20 19 16 14 15 15 13 13 14 15 17 24 35 47 52 61 71 86 97 107 117 122 131 142 155 158 156 158 165 171 179 188 195 204 211 219
79 83 84 87 88 88 88 88 83 79 78 73 72 72 71 71 72 76 79 87 89 101 113 120 113 111 106 99 90 92 98 96 90 88 84 84 81 78 70 65 59 57 52 44 37 32 30 30 31 30 24 26 27 26 27 26 20 20 21 20 21 26 30 37 41 42 47 50 59 67 81 93 109 123 141 160 175 186 197 198 202 211 219 222 225 223 222 220 218 211 201 192 188 171 158 150 139 128 120 108 96 89 86 79 76 70 66 59 56 46 37 34 30 26 24 28 28 30 31 30 31 31 31 35 41 35 35 37 40 40 40 45 52 65 78 96 104 110 123 135 123 115 103 90 88 73 63 59 59 73 89 104 109 109 104 102 98 101 102 106 112 115 105 91 90 90 89 93 93 98 108 109 116 117 115 124 127 130 137 146 142 140 135 117 108 96 91 89 83 76 66 71 83 90 97 97 89 73 64 47 40 31 28 26 27 27 26 30 32 31 30 31 28 26 23 19 16 16 15 16 15 13 12 10 10 11 12 14 15 15 16 21 31 42 52 67 74 88 98 113 125 130 141 156 161 165 166 171 180 191 193 197 203 207 213 220
77 80 83 86 88 89 89 89 84 81 79 74 74 74 76 77 77 80 84 91 98 111 133 130 122 119 117 106 103 102 104 109 105 96 90 88 80 74 69 61 64 63 50 42 35 30 27 30 30 27 26 26 23 20 21 23 21 23 24 24 27 39 40 44 47 46 50 57 64 76 86 91 103 118 139 156 179 190 196 201 208 217 220 221 225 225 224 222 220 216 207 200 196 182 162 155 137 125 112 102 89 89 88 84 77 68 64 54 56 46 39 32 30 21 20 21 21 23 26 24 28 28 30 32 34 30 28 31 37 37 41 49 57 64 71 86 89 99 111 125 116 104 94 88 84 73 66 57 65 80 90 98 93 86 88 87 84 91 90 96 98 99 101 92 89 91 91 96 94 103 113 112 116 115 118 131 141 143 144 143 138 139 140 134 122 107 101 93 89 80 73 79 87 90 93 96 92 81 68 54 42 35 30 28 30 30 30 31 34 30 28 27 23 20 19 16 14 13 14 14 14 12 11 9 9 10 12 15 15 14 14 20 31 44 63 72 80 90 102 117 128 137 142 158 168 171 175 184 191 198 203 206 211 215 219 223
73 79 82 86 88 89 89 90 89 84 80 78 79 81 81 84 84 87 89 96 108 126 142 143 137 127 128 120 120 117 112 117 115 106 94 89 78 71 68 66 69 68 56 45 39 31 24 24 27 28 24 24 21 17 17 20 21 26 26 27 34 41 45 50 49 50 50 63 73 82 88 89 101 116 140 161 182 191 197 203 211 215 220 220 221 223 223 222 221 220 216 211 203 188 166 147 128 120 105 92 89 88 87 84 77 66 54 47 49 46 42 40 32 24 19 16 16 17 19 23 30 28 28 27 27 23 23 27 34 40 42 50 56 66 69 74 84 89 102 108 106 92 89 82 80 77 74 69 71 82 83 86 86 69 68 74 79 87 88 89 88 91 90 89 87 88 91 90 90 103 110 113 113 117 127 133 147 153 144 141 134 130 127 128 120 108 99 93 89 89 86 84 88 89 89 89 89 81 73 65 46 40 32 31 32 34 32 32 35 31 24 21 19 17 16 15 13 12 14 15 14 12 11 9 10 12 13 14 13 13 14 17 28 46 64 72 83 92 105 116 130 138 143 155 163 169 176 188 197 202 207 210 215 221 224 225
72 77 81 86 88 89 89 90 89 88 83 81 84 88 89 89 90 91 98 106 119 131 144 153 150 141 135 127 133 128 119 118 116 106 92 87 74 70 72 71 72 70 57 45 39 34 27 24 26 28 26 23 21 17 17 19 20 21 23 28 37 41 49 56 49 47 56 71 83 89 90 93 106 120 143 163 181 195 200 207 217 220 222 222 220 223 225 227 227 224 221 217 208 186 161 141 131 118 97 88 82 78 80 79 70 57 46 47 47 45 41 37 28 26 23 21 20 20 21 27 32 28 31 28 23 20 19 21 28 40 46 52 57 68 69 77 82 87 99 99 97 90 88 79 78 74 70 71 74 79 72 72 68 54 64 74 81 84 83 82 88 92 89 81 74 77 83 87 90 101 103 103 107 115 125 133 152 161 155 144 128 126 130 127 118 103 92 89 88 89 89 87 81 79 84 80 73 72 72 64 49 46 42 41 41 37 32 31 31 30 26 20 16 16 15 14 13 12 14 14 13 13 11 10 11 13 13 13 12 14 16 17 26 42 56 66 77 89 102 106 116 126 138 146 156 165 177 191 203 211 214 216 220 224 227 229
71 76 80 86 88 89 90 91 91 89 88 89 89 91 92 94 97 102 106 113 123 135 150 158 160 156 144 135 135 131 124 117 115 107 94 89 79 76 78 74 72 69 59 46 37 34 28 23 26 26 27 23 19 16 16 16 17 20 24 31 40 47 57 63 64 63 69 78 92 104 103 108 119 138 160 181 194 206 202 208 215 222 223 222 220 224 228 229 229 228 226 223 214 200 177 153 140 126 103 89 74 72 74 71 65 52 44 45 42 42 40 32 27 27 32 28 27 21 26 32 37 35 42 35 30 26 20 20 24 37 47 49 54 63 66 76 79 92 108 110 104 92 78 77 78 70 67 69 72 79 69 65 56 46 56 69 79 82 86 77 80 83 80 71 64 66 73 78 87 89 90 92 96 103 116 134 146 157 159 144 134 123 124 119 109 103 101 91 89 88 88 82 76 73 71 69 64 64 68 65 59 56 50 50 47 44 32 30 28 28 24 19 15 15 15 12 12 12 13 14 13 13 11 10 11 13 13 13 13 16 17 17 24 40 47 59 70 80 89 94 103 113 124 141 156 166 179 193 208 215 219 222 224 226 229 229
70 76 81 86 89 90 91 93 94 93 91 93 94 97 99 102 105 108 113 118 128 141 152 161 163 160 155 152 146 137 126 125 118 108 101 90 84 80 79 77 73 67 57 47 37 32 30 24 23 26 24 20 16 15 15 15 16 20 27 35 45 56 64 66 74 79 84 89 99 110 111 122 140 157 172 194 208 211 207 208 213 222 223 221 219 219 226 229 229 229 230 227 222 214 189 162 143 131 108 90 79 70 68 69 61 46 40 39 35 34 32 27 24 34 39 34 30 27 32 40 45 45 46 41 39 30 24 24 28 35 47 50 59 57 57 69 84 92 107 106 99 83 70 65 66 66 68 66 66 72 71 69 64 46 49 71 82 82 84 74 68 70 68 61 54 49 54 65 73 78 87 89 91 99 109 122 135 143 153 147 138 122 117 113 106 102 98 93 91 88 80 77 77 71 61 59 64 63 63 65 66 66 64 63 54 46 35 30 26 24 21 16 14 13 13 12 13 13 12 14 13 13 12 11 13 15 16 15 15 17 17 17 27 40 44 52 64 70 81 89 90 102 117 138 156 166 181 197 210 219 224 226 227 228 230 230
70 77 82 87 89 91 96 99 99 98 97 101 103 106 108 109 112 117 120 125 138 146 152 159 163 162 161 159 153 146 135 134 124 108 101 94 88 83 81 79 74 69 63 50 39 32 28 24 20 21 21 19 16 14 14 16 17 20 26 35 46 61 68 72 84 88 89 90 97 110 115 130 144 156 177 198 209 209 207 210 215 224 223 219 215 219 224 228 230 230 230 228 225 214 195 177 156 142 122 92 86 74 67 68 54 46 44 41 39 35 34 31 32 37 39 35 32 32 37 41 47 56 49 42 41 31 24 26 31 39 45 50 66 69 70 79 92 92 98 94 93 73 67 63 61 63 65 65 61 56 56 57 49 42 50 66 70 67 67 61 59 54 49 49 50 44 46 56 66 72 87 94 97 106 113 117 125 128 140 139 134 122 120 113 105 94 90 89 89 90 87 81 81 73 68 65 66 68 64 65 71 74 69 70 64 49 37 30 26 21 19 14 12 11 11 11 12 13 13 13 12 11 12 11 14 17 20 19 17 19 20 21 30 39 39 46 57 64 72 83 84 91 112 134 152 162 182 197 208 216 224 227 229 229 230 231
70 77 82 88 90 93 99 104 104 103 103 105 108 111 115 115 116 122 125 133 141 150 155 160 166 168 168 165 158 155 144 139 123 108 103 98 91 89 83 81 76 68 64 50 39 31 27 23 20 20 19 19 17 14 14 15 17 20 28 35 50 66 78 84 91 97 98 98 104 117 126 142 152 166 185 202 207 200 206 215 225 226 226 221 220 221 224 228 229 231 231 229 226 215 203 179 163 142 125 99 90 86 72 68 54 44 47 44 40 34 32 32 40 44 44 40 40 41 42 44 49 56 54 47 42 37 34 37 37 42 52 61 72 77 81 89 96 99 97 91 88 73 67 66 69 71 66 59 47 45 42 44 37 35 40 54 52 49 47 44 44 41 41 42 42 41 40 47 59 71 83 96 104 110 115 119 125 126 133 135 130 125 118 109 96 89 89 86 89 98 90 88 80 76 73 67 67 66 71 72 77 80 81 78 69 49 39 27 23 19 15 11 10 9 9 10 11 12 12 11 11 11 11 11 13 17 24 21 19 19 20 23 28 34 37 42 52 59 67 76 84 89 106 123 141 160 179 196 208 215 222 227 229 230 230 231
70 77 83 88 91 97 104 108 108 107 108 111 113 118 120 120 122 127 134 141 147 156 158 159 166 171 169 162 156 150 142 135 119 110 106 102 98 90 80 77 71 65 59 49 39 32 28 27 23 19 17 19 19 16 15 15 17 20 27 37 50 68 80 90 103 105 110 109 108 124 142 153 163 180 185 198 200 206 211 218 225 227 225 225 225 227 228 230 231 231 232 230 225 214 199 179 163 144 131 117 109 93 80 71 57 50 54 46 37 30 32 32 35 44 40 35 40 40 41 46 57 61 65 61 50 50 59 61 54 59 65 71 81 86 89 97 103 105 102 90 83 69 68 69 68 73 69 50 39 34 40 39 28 26 28 40 37 35 35 35 34 31 31 34 39 37 35 41 49 69 80 90 104 111 113 119 124 126 131 130 127 118 108 101 91 88 86 89 94 101 103 98 89 83 78 72 67 71 78 80 79 82 86 82 71 49 35 26 20 17 14 11 10 9 9 10 11 12 12 11 11 11 11 12 15 19 23 20 17 19 23 24 26 31 34 41 49 57 66 74 84 89 101 116 131 152 172 189 204 213 221 226 228 230 231 231
71 78 86 89 93 102 108 113 115 113 113 117 119 123 126 127 130 134 141 149 156 160 161 162 165 172 169 161 153 141 138 131 123 117 106 99 96 88 79 73 68 61 57 45 34 32 32 30 24 21 19 21 21 21 17 16 19 20 27 35 47 65 72 89 104 107 115 117 120 131 149 160 171 177 181 194 197 211 218 222 224 228 228 228 227 229 230 232 232 232 232 231 225 215 197 182 160 153 146 135 126 104 89 77 65 52 52 47 39 34 32 31 32 35 32 32 41 42 44 46 57 56 65 61 57 61 69 76 70 68 73 80 90 96 99 110 115 113 106 93 87 82 79 73 72 72 63 40 32 30 37 30 20 17 20 26 21 21 23 27 27 26 26 28 32 30 30 37 46 65 74 88 97 107 109 112 116 118 124 123 126 117 112 104 99 90 88 91 92 96 108 108 96 89 84 83 76 77 76 71 70 78 79 77 68 47 34 26 19 16 13 10 10 9 9 10 11 12 12 10 10 10 11 12 14 17 19 17 19 21 24 27 28 30 31 41 45 50 57 70 81 89 96 110 127 146 161 182 202 213 220 225 228 230 230 231
74 81 88 90 97 104 111 116 118 118 119 122 124 127 130 133 135 141 146 153 160 162 163 165 166 172 168 159 150 137 127 125 122 111 106 97 88 84 77 71 65 59 54 44 39 37 35 31 26 23 21 23 24 24 21 20 21 23 28 39 45 52 66 83 94 103 116 125 131 139 157 172 178 181 188 195 203 213 221 223 225 226 228 227 228 230 231 232 232 233 232 230 225 217 208 188 171 168 159 152 138 115 97 86 71 59 57 50 41 40 35 32 28 30 28 35 46 54 52 54 56 57 67 69 63 67 74 78 82 83 88 89 90 94 113 127 130 120 109 98 90 90 88 79 73 66 54 37 31 23 23 26 19 14 14 15 14 13 15 20 23 20 20 21 26 28 28 31 41 57 70 82 93 104 107 107 113 113 111 116 122 122 115 108 101 93 91 91 92 101 110 112 110 98 97 89 87 84 76 66 68 76 78 72 63 44 31 27 20 16 13 11 10 8 8 10 11 11 11 9 10 9 10 12 14 16 16 17 20 24 24 26 31 30 30 37 42 47 57 69 76 86 93 105 119 138 156 179 199 213 220 225 228 229 230 231
76 82 88 91 98 105 112 117 120 123 123 125 126 130 134 137 140 144 152 155 159 163 165 163 166 169 163 160 156 141 127 119 117 108 106 98 87 81 77 71 64 61 57 50 44 41 35 31 27 23 23 23 26 26 23 23 24 28 32 41 47 59 72 88 96 105 117 133 141 156 172 184 186 192 201 206 213 220 224 222 224 224 224 224 227 230 232 233 233 233 232 229 225 224 216 206 198 185 171 156 143 124 108 93 84 70 68 64 52 50 47 44 37 30 26 32 47 59 65 63 63 68 70 71 66 68 72 74 81 90 96 93 92 98 124 135 126 119 119 107 99 90 83 74 67 54 44 35 31 28 23 20 20 15 13 12 11 11 12 14 16 16 17 17 19 19 26 27 37 46 64 80 88 91 97 98 104 104 104 109 108 110 107 105 102 103 98 94 97 104 113 118 120 111 111 103 90 81 72 70 77 84 80 71 63 47 39 32 24 17 13 11 10 8 7 8 9 10 9 9 10 9 9 10 11 13 15 17 19 20 20 21 27 31 34 35 40 46 63 68 72 80 89 96 112 133 155 178 199 212 220 225 228 229 230 231
78 83 88 92 99 106 113 118 122 123 126 126 128 133 138 140 141 146 153 158 160 163 163 163 166 165 162 158 152 142 128 120 112 108 104 97 88 83 80 77 70 67 65 54 46 46 40 35 30 26 27 30 32 34 30 30 28 31 37 45 52 69 81 89 102 109 122 142 156 174 180 190 184 194 203 206 216 224 227 227 228 225 224 224 226 230 232 232 232 232 231 228 226 224 215 211 206 194 189 171 158 133 119 103 94 83 78 71 57 52 49 44 39 31 26 31 41 47 54 61 67 68 68 72 67 72 79 81 83 97 96 93 97 109 133 141 127 126 119 106 92 86 72 65 56 49 44 45 40 37 27 17 14 13 12 12 13 11 12 11 14 15 14 15 15 15 19 26 35 42 56 71 82 89 92 93 90 93 98 102 101 103 101 98 98 105 108 105 109 110 120 123 123 118 119 119 97 87 74 73 77 80 73 65 63 52 45 39 31 21 16 12 9 6 6 7 8 9 8 8 8 9 9 9 10 12 15 16 15 15 14 16 21 28 39 39 42 50 63 68 74 82 91 99 111 130 156 177 199 213 221 224 227 228 229 230
80 84 89 93 101 108 115 119 123 124 126 126 128 134 138 141 144 150 156 159 163 165 165 163 163 163 158 153 144 140 128 116 107 106 101 96 89 86 81 81 76 69 66 59 57 52 47 41 37 31 31 37 41 41 39 39 34 37 44 52 61 72 86 89 99 109 122 141 163 176 188 194 192 197 209 211 218 225 229 230 228 224 224 224 227 230 231 232 232 231 229 227 228 225 215 210 203 201 196 176 150 137 127 109 97 88 76 74 65 52 52 44 39 30 23 24 27 34 42 47 52 63 69 76 74 78 86 84 89 104 102 106 119 128 138 140 130 122 113 104 91 80 71 61 56 56 50 50 46 41 27 15 11 11 12 12 13 11 10 9 11 11 13 13 13 15 16 21 35 44 50 67 80 88 92 89 86 84 89 89 89 89 89 89 91 98 105 107 115 117 122 119 116 124 127 116 103 90 84 78 77 73 70 65 63 56 45 41 32 23 17 13 8 6 5 6 7 7 8 9 8 8 9 9 10 12 13 15 15 14 11 14 19 26 35 39 44 50 63 71 80 87 94 107 116 138 160 179 194 209 219 222 225 226 227 228
81 87 89 94 104 111 116 120 123 122 125 126 130 137 141 143 152 157 159 160 162 163 163 161 161 160 156 152 143 138 125 110 109 110 104 93 89 88 81 80 74 69 68 67 67 59 50 44 41 40 40 44 45 44 42 42 40 39 44 52 66 73 84 89 98 107 120 141 159 165 179 193 201 208 214 219 223 227 230 230 229 226 225 225 227 230 230 230 230 226 224 223 225 216 206 200 203 204 195 172 143 137 134 113 102 89 76 74 66 54 49 44 39 32 27 23 26 32 41 46 46 52 64 72 74 80 89 98 109 125 130 138 143 144 142 144 137 119 109 99 88 71 64 49 47 47 44 42 37 31 21 15 13 11 11 11 11 9 7 6 8 9 11 12 12 13 15 20 32 44 50 65 72 78 87 84 79 77 76 76 78 78 80 80 86 92 102 109 116 113 113 115 108 112 120 113 112 101 89 80 76 71 65 57 54 50 44 45 39 27 19 15 9 6 5 5 6 6 7 8 8 9 8 8 10 11 11 12 13 11 12 15 19 23 28 37 42 52 65 74 86 91 98 109 118 137 158 180 191 200 210 214 219 222 224 226
84 88 90 98 106 112 117 120 122 122 125 126 130 135 140 143 155 160 163 162 162 162 162 161 160 156 153 149 144 140 127 116 109 108 103 96 90 89 86 78 78 77 72 72 71 64 57 52 50 47 49 54 54 47 47 47 46 42 47 54 66 71 82 87 92 98 110 125 142 153 175 194 203 208 215 222 224 226 228 230 230 228 228 227 229 229 228 227 227 221 219 217 219 211 206 195 197 201 198 184 159 149 137 116 96 86 77 70 59 46 44 45 37 32 31 24 26 31 40 45 44 50 61 70 78 88 99 108 125 139 146 144 157 157 146 141 133 113 97 91 76 64 59 47 41 40 32 32 31 30 26 16 12 12 12 12 10 7 5 5 6 8 10 12 12 12 14 23 34 42 49 56 59 68 74 79 78 71 64 64 64 64 67 73 81 89 93 107 111 110 112 107 106 103 108 112 113 105 92 87 74 70 63 52 50 50 49 49 40 28 19 13 8 5 2 4 4 4 6 7 7 8 8 8 9 10 11 12 12 12 14 17 23 24 24 32 40 56 67 77 89 90 97 110 120 133 156 174 184 192 201 204 210 215 220 224
87 89 91 101 106 110 117 119 120 124 126 126 130 134 139 142 155 162 171 168 163 161 162 161 158 155 150 149 143 139 127 115 111 108 102 94 91 88 83 74 79 82 77 73 72 69 64 64 61 59 65 65 63 57 59 57 57 50 50 59 67 73 82 89 90 94 107 117 133 152 171 193 206 204 207 220 225 226 227 227 227 229 229 229 229 227 226 225 224 220 218 214 209 209 198 196 193 193 191 188 166 147 124 108 93 84 69 64 49 40 39 41 37 34 34 26 26 31 37 44 49 56 68 74 84 92 106 118 137 146 153 157 147 150 141 125 116 109 92 84 70 63 59 49 41 32 27 24 27 27 24 16 13 11 11 10 8 5 5 4 5 6 9 14 15 14 16 23 34 42 44 44 50 57 65 72 74 68 59 57 57 57 61 70 76 88 89 94 103 106 109 103 99 93 98 109 111 94 90 89 78 67 63 52 49 54 61 50 37 26 17 11 7 5 2 2 2 4 5 6 6 7 8 8 9 10 13 14 15 16 21 24 26 27 27 30 39 52 67 78 87 89 98 111 124 131 147 162 176 185 193 197 204 209 213 220
87 88 91 101 104 107 115 119 122 127 127 127 133 137 141 144 155 163 174 171 163 161 161 159 158 155 152 152 147 141 130 116 109 107 102 91 92 90 86 76 79 88 87 87 83 77 68 70 68 66 72 72 68 66 69 71 71 61 54 63 71 78 86 90 92 102 108 112 127 149 163 185 197 194 199 213 221 226 227 223 221 226 225 227 229 227 224 220 213 210 210 213 202 191 188 192 186 184 181 177 153 126 110 101 90 81 61 46 44 40 39 41 40 40 37 27 28 35 42 49 57 65 76 84 92 112 128 141 156 162 158 160 152 146 134 119 102 93 81 69 59 52 54 49 40 30 26 20 21 20 19 15 11 8 8 8 6 2 2 2 4 5 9 12 17 19 20 23 34 41 42 42 49 54 57 65 68 65 59 57 56 59 65 72 77 81 86 89 94 99 105 104 103 98 102 108 103 91 91 89 88 77 67 56 47 50 61 47 37 24 17 9 6 4 4 2 2 2 2 4 6 7 8 9 10 12 15 20 23 26 26 26 26 28 28 28 34 45 61 74 83 89 99 109 119 126 141 156 166 177 188 193 197 203 207 212
82 88 91 99 103 104 111 118 122 127 128 130 131 135 140 147 158 163 172 166 163 159 159 157 156 155 153 150 152 142 133 119 112 108 104 96 93 92 90 89 86 89 91 93 91 87 78 73 71 74 78 80 78 78 82 83 82 74 70 69 73 83 89 96 97 103 111 112 125 142 157 174 182 188 192 199 212 218 221 217 217 222 221 225 225 224 224 217 207 199 202 204 197 186 186 176 168 162 161 156 134 116 97 90 83 68 47 34 32 31 34 35 40 44 41 39 37 40 47 57 64 72 80 90 105 123 134 147 155 160 159 150 144 141 126 111 94 89 73 57 56 54 50 47 35 30 21 15 15 14 14 14 13 10 8 6 5 2 1 2 2 4 6 10 16 23 27 30 34 41 42 44 47 56 59 59 67 65 61 52 50 59 68 76 84 86 86 89 94 97 101 103 102 104 108 108 104 94 92 93 90 83 71 61 57 59 64 50 39 23 15 9 6 5 5 4 4 4 4 5 6 7 8 10 11 13 19 27 28 34 32 31 30 32 30 30 34 44 57 69 80 88 93 108 119 126 135 144 155 168 179 182 190 194 198 203
80 86 90 93 94 97 104 110 116 125 127 128 127 127 139 152 162 163 168 163 162 157 157 156 156 156 153 149 146 141 134 123 115 110 109 97 92 91 90 90 91 96 103 102 98 93 89 81 78 83 86 88 88 89 93 91 89 89 88 86 86 89 94 102 104 111 112 113 122 139 150 160 175 181 182 191 200 207 210 207 211 218 219 226 225 220 221 219 211 193 180 184 182 179 180 168 160 155 152 140 127 109 89 80 65 46 35 27 26 26 26 28 37 44 47 47 44 46 50 59 68 78 84 92 108 127 138 152 150 146 146 142 138 126 115 103 90 82 71 57 52 52 52 50 35 27 19 13 11 12 11 12 14 13 10 7 4 2 1 1 1 2 5 10 14 19 27 30 34 37 39 41 45 52 56 56 61 61 54 49 52 61 69 76 84 87 89 92 94 97 99 103 99 99 106 107 107 97 89 91 90 84 73 70 66 66 65 50 37 21 12 9 6 4 4 4 4 5 5 5 6 7 7 10 13 17 26 35 39 44 40 34 32 34 30 32 35 41 50 65 76 82 91 106 117 122 133 139 146 161 169 172 177 182 191 198
79 84 88 88 89 90 96 105 111 120 125 127 126 128 141 153 165 166 166 161 159 155 155 153 152 150 144 141 139 134 127 122 118 112 110 104 99 97 93 94 97 99 108 109 105 99 89 87 84 89 88 89 89 94 101 104 101 98 94 93 92 93 101 118 124 122 122 125 130 138 146 160 172 176 181 188 191 197 200 201 202 213 222 227 226 221 220 216 213 194 177 163 160 157 163 165 159 146 144 134 125 108 86 71 50 39 32 24 21 23 26 30 39 44 46 46 46 52 56 59 69 80 88 96 110 134 146 150 146 146 149 147 131 112 105 92 88 76 66 54 47 52 50 47 37 28 20 14 10 9 9 9 10 11 10 7 5 2 2 1 1 2 5 7 10 15 24 28 31 32 35 40 45 49 47 49 50 52 46 47 50 61 72 80 87 89 88 90 96 93 91 93 93 99 101 103 102 101 90 89 87 79 74 77 69 69 61 44 28 19 12 8 6 5 4 2 2 5 4 5 7 8 8 11 14 20 28 40 42 47 46 39 41 40 34 32 37 40 45 50 66 80 94 107 120 122 131 135 139 150 159 168 175 179 186 195
79 80 80 80 83 87 89 97 106 112 117 123 125 128 141 150 159 163 162 160 152 150 150 152 147 146 141 138 133 128 126 120 118 111 108 105 101 101 96 97 94 96 99 106 108 103 97 90 90 94 94 93 97 105 110 110 108 107 101 105 109 109 112 128 142 131 128 131 134 137 143 156 169 174 180 177 182 193 195 199 207 217 226 228 228 224 218 210 207 196 166 149 150 144 146 159 158 144 140 125 108 98 79 64 44 39 31 28 24 23 28 37 40 45 47 49 50 56 59 63 71 80 88 98 110 134 144 155 146 147 153 143 125 104 102 93 80 72 63 47 45 49 52 44 35 27 20 15 10 7 7 8 8 8 8 8 5 4 2 1 2 4 4 6 8 13 20 30 30 30 39 45 50 49 46 46 45 46 50 54 56 64 73 83 87 89 89 90 94 93 89 89 89 91 94 96 94 94 86 83 78 73 69 69 67 65 52 39 27 17 12 9 7 5 2 2 2 4 5 5 7 8 10 13 15 21 34 41 47 49 52 49 47 41 41 40 42 45 46 46 59 74 90 109 123 131 134 139 137 142 150 161 172 181 182 194
74 70 70 72 77 81 87 89 98 105 109 116 119 120 128 141 147 153 153 155 143 142 147 146 141 139 134 131 128 128 126 119 116 110 105 102 101 98 91 90 91 91 93 106 106 102 103 102 104 104 108 109 109 115 120 119 116 112 108 112 120 126 133 141 146 135 125 127 137 140 142 153 165 172 179 176 177 185 194 201 207 217 226 227 226 224 218 208 197 186 159 152 153 143 134 141 140 134 131 115 98 88 67 50 46 41 34 31 28 26 30 37 40 46 49 52 52 57 64 67 76 82 88 97 109 126 142 147 144 146 146 135 117 103 102 91 80 70 59 47 45 49 49 40 37 30 23 14 9 6 7 8 7 7 8 7 5 4 2 2 2 4 4 5 8 14 21 31 32 32 39 46 46 44 44 45 42 44 52 61 63 67 78 86 88 89 92 94 99 96 89 88 89 93 90 90 89 86 72 67 67 68 68 64 59 54 42 32 26 17 15 11 8 4 1 1 2 4 5 6 7 10 13 17 17 26 40 45 47 49 52 52 46 44 47 49 44 46 50 54 59 68 84 105 120 127 135 135 131 141 143 155 166 178 182 194
69 66 65 67 70 74 79 86 91 96 99 106 110 116 118 128 138 144 147 150 141 141 147 141 133 128 125 125 123 123 122 115 111 107 103 99 97 90 89 89 93 97 101 106 109 109 107 108 109 111 115 115 122 123 130 131 126 122 119 117 127 138 144 149 147 139 131 137 141 152 152 157 163 172 180 182 181 182 197 201 210 219 225 228 226 224 217 206 192 178 160 150 141 126 122 135 137 128 124 109 94 78 64 47 47 46 44 40 34 30 34 39 44 47 50 56 57 61 63 67 74 82 87 92 106 117 130 140 141 140 137 123 110 93 90 88 79 68 61 54 45 42 42 40 35 30 23 15 11 7 5 5 5 5 7 7 5 4 4 4 4 4 4 6 9 14 21 31 32 34 34 39 39 37 35 40 42 49 57 64 67 71 80 86 89 92 98 98 98 91 89 89 90 90 89 88 81 72 61 57 54 57 64 57 52 46 37 32 28 20 15 12 8 5 2 2 4 5 6 7 8 12 16 23 26 30 39 44 42 47 50 57 47 44 46 46 41 44 47 61 61 66 78 91 104 109 120 130 125 134 140 147 158 171 182 193
67 64 63 65 66 70 72 79 83 87 89 93 99 108 111 117 126 133 138 140 137 138 141 140 127 120 116 112 113 111 109 107 104 102 99 98 92 89 87 88 91 96 102 107 110 110 110 109 110 112 110 112 123 128 134 140 135 130 128 133 137 143 150 149 156 149 144 144 152 157 158 162 171 174 178 185 181 185 200 208 213 223 227 229 229 225 222 214 200 182 166 153 147 126 124 133 138 130 117 105 96 82 71 52 50 56 50 50 47 41 39 41 46 50 54 61 64 65 64 67 73 79 86 90 101 111 122 130 135 138 128 118 107 89 86 81 71 65 56 50 45 40 37 37 34 27 23 15 9 6 4 4 5 7 8 7 5 5 5 5 4 2 5 7 10 14 19 24 30 34 32 32 32 31 30 34 40 50 59 59 65 72 81 88 89 91 98 102 99 90 89 87 89 89 88 82 80 71 59 52 46 47 54 52 45 39 32 30 26 21 15 10 7 5 4 2 4 5 6 8 10 14 21 26 31 34 41 46 54 49 52 56 45 37 42 42 40 40 45 56 65 66 70 80 89 98 107 116 120 126 131 142 155 174 189 193
66 63 61 63 64 68 67 69 71 76 78 87 91 102 105 106 112 113 117 118 116 119 126 128 118 108 104 101 102 101 94 93 96 96 94 90 89 88 87 88 89 92 99 105 108 108 107 106 106 107 106 110 116 124 134 143 142 140 141 147 150 149 144 153 160 155 157 156 156 162 171 181 186 181 177 186 189 188 199 211 219 226 230 230 229 227 224 217 211 197 184 172 166 146 141 140 128 123 110 105 97 88 82 66 64 64 56 63 59 52 49 45 45 49 56 64 68 68 67 66 70 78 83 88 94 105 112 119 125 126 125 115 99 88 83 76 64 52 47 46 45 37 35 35 34 27 19 13 8 5 2 4 5 6 7 6 5 5 5 4 2 2 5 9 11 15 19 24 31 39 39 32 30 27 26 30 37 44 50 56 66 74 81 87 89 91 96 102 101 90 88 88 89 88 86 80 80 71 57 56 47 44 42 41 40 42 34 26 17 16 13 9 6 4 4 2 2 5 7 9 10 14 23 27 30 30 35 44 57 57 65 61 42 31 35 34 40 42 45 49 57 56 57 69 81 90 98 103 107 112 120 137 156 172 186 195
67 63 56 56 57 61 59 59 63 65 70 76 82 89 93 96 97 98 99 102 102 106 112 115 106 94 91 92 90 89 88 88 89 90 89 87 83 82 84 87 89 93 97 101 103 101 101 101 103 104 105 107 112 123 131 143 144 146 146 156 155 153 150 156 162 169 175 169 168 169 180 186 190 195 192 195 195 191 195 207 219 225 229 229 227 223 221 220 215 200 191 180 163 158 156 155 141 133 123 116 103 94 83 71 67 71 68 70 68 69 61 50 47 54 61 65 69 68 66 67 68 72 79 86 89 96 103 107 115 116 112 101 91 84 79 70 59 44 40 35 37 32 31 30 30 26 17 12 7 4 4 4 6 7 8 7 6 6 5 4 2 2 5 7 11 15 17 23 32 39 37 31 26 26 27 30 32 39 46 52 65 72 79 82 88 89 90 98 93 89 87 88 89 88 87 82 82 77 59 47 44 41 40 35 40 37 28 20 15 14 12 9 5 4 4 2 4 6 9 11 11 16 27 34 35 31 31 39 47 61 64 54 40 32 32 30 32 39 41 42 46 46 46 57 69 79 86 88 91 99 112 127 147 168 182 189
65 59 50 50 54 52 50 49 52 54 61 66 70 77 86 88 90 90 90 91 92 92 97 101 93 89 83 82 80 77 79 79 81 84 87 83 80 79 82 83 87 89 92 91 94 99 101 97 97 101 104 104 111 119 130 144 155 156 157 159 161 165 163 168 175 186 190 188 178 178 182 188 195 202 204 206 207 206 203 210 217 224 228 228 225 222 221 220 212 200 195 181 166 163 168 169 157 141 135 126 116 102 81 77 76 82 84 83 77 72 68 63 59 63 64 64 67 65 63 65 65 66 71 79 84 89 91 96 101 105 99 90 84 77 69 61 47 35 31 28 28 26 23 23 24 23 16 11 8 6 5 6 6 6 8 7 7 6 6 4 4 4 5 7 11 13 16 23 28 32 31 27 24 28 31 31 30 35 40 46 57 67 73 79 83 87 89 93 90 88 88 88 88 89 88 87 81 76 65 49 47 41 35 35 35 32 28 23 16 11 9 8 6 5 4 4 6 10 11 12 16 26 37 40 42 35 37 35 42 56 63 52 40 34 27 23 27 32 40 40 41 39 37 46 57 68 78 83 87 89 103 122 137 156 175 184
63 54 49 47 49 47 45 44 42 41 47 54 63 71 77 78 86 87 88 87 86 82 83 88 89 86 76 72 69 67 69 69 70 74 79 79 77 77 82 82 82 84 89 89 90 96 98 94 96 96 99 104 113 125 140 149 157 160 163 169 176 182 182 189 192 197 199 198 190 188 188 196 210 213 208 207 210 208 204 210 215 224 227 227 223 221 217 214 208 199 194 188 176 161 162 166 160 144 138 123 115 105 90 89 89 92 98 97 88 76 68 68 69 71 68 66 65 63 61 63 61 63 66 72 77 83 88 90 93 93 90 88 80 74 65 50 40 30 27 26 24 21 17 19 19 17 15 12 10 8 8 9 8 7 8 9 9 7 7 6 5 6 6 8 12 14 16 24 30 34 32 28 26 28 30 30 30 31 37 45 54 65 71 78 81 86 89 91 90 89 89 89 89 90 92 92 84 77 70 57 52 41 35 37 41 40 37 26 19 11 9 8 7 6 4 5 7 11 12 15 21 31 42 42 41 35 40 41 41 45 52 46 37 30 26 24 27 30 32 34 32 30 28 37 46 59 70 78 83 89 93 108 119 137 160 180
65 56 49 44 44 45 41 40 39 37 39 47 59 70 70 70 76 79 83 81 80 73 71 73 74 76 69 63 57 52 57 65 65 69 73 76 77 78 81 81 79 79 86 89 90 96 98 94 98 101 99 106 117 131 141 152 163 166 169 175 182 189 190 196 198 202 208 207 201 200 199 209 215 219 216 209 207 208 207 209 214 224 226 224 224 222 217 211 206 201 192 185 176 169 155 156 155 147 138 124 112 110 99 93 89 93 103 98 88 74 70 70 76 74 69 69 69 64 61 61 61 61 65 71 77 82 84 88 89 89 86 82 73 67 54 42 31 27 24 24 20 16 15 14 14 12 11 12 10 9 9 9 9 9 10 10 12 12 11 8 7 8 9 11 15 17 20 24 31 34 31 28 27 30 30 30 31 34 42 47 57 65 71 80 86 89 93 90 90 90 90 91 93 94 97 97 89 86 82 69 61 45 39 35 41 42 45 30 19 12 11 10 10 7 6 8 9 11 15 19 26 37 46 44 42 39 40 39 41 44 44 40 32 28 26 23 21 30 30 27 24 24 26 31 41 54 61 69 80 89 93 102 112 127 158 182
68 56 47 42 41 40 35 34 32 32 32 45 59 64 61 63 65 70 77 76 74 70 69 66 66 67 61 47 46 46 52 61 66 67 71 74 78 79 80 80 78 80 84 89 91 94 99 97 101 105 105 113 124 135 143 156 163 163 171 179 182 190 196 201 199 206 213 215 211 211 213 213 218 220 218 207 202 200 202 208 215 224 226 224 224 219 214 208 200 190 185 181 176 177 153 138 147 144 141 133 115 109 96 91 90 96 94 90 84 77 73 73 74 76 74 73 73 70 66 65 65 64 66 72 80 80 81 83 88 84 79 76 70 61 49 37 31 26 21 20 20 15 12 10 9 8 8 9 9 9 9 9 8 9 11 13 15 16 16 13 12 11 11 13 16 19 20 24 32 34 28 26 27 27 28 31 37 40 45 52 64 67 74 82 89 94 94 90 91 90 90 94 96 98 99 97 94 92 89 80 69 54 45 44 44 40 45 34 21 15 17 16 14 11 9 12 12 13 16 23 32 44 46 45 41 37 32 34 41 41 40 39 32 28 21 20 21 26 24 23 21 23 27 31 39 45 46 57 74 87 90 101 111 130 156 182
73 61 50 44 41 37 32 31 28 27 30 41 47 52 50 49 50 59 66 68 68 68 67 61 57 56 47 44 44 45 52 63 67 69 73 74 78 78 77 78 80 83 86 88 90 94 98 101 104 106 109 118 131 140 146 153 159 163 168 176 185 193 197 201 199 208 214 218 217 216 218 218 217 215 213 206 202 202 207 209 216 221 224 222 219 219 216 209 203 192 192 185 176 166 153 134 133 134 139 134 112 97 92 92 93 91 88 89 83 76 72 74 72 77 80 78 73 72 69 69 70 70 71 77 79 78 81 81 83 81 78 73 67 57 46 37 30 23 19 17 17 15 11 8 6 6 6 6 7 8 8 7 7 9 13 15 19 19 21 19 16 13 12 13 13 14 16 20 27 31 26 24 24 26 28 31 37 42 47 59 64 68 76 86 91 94 94 92 90 90 91 97 96 98 103 101 101 98 89 81 73 63 54 47 40 34 34 26 19 17 24 24 23 16 14 16 14 16 21 26 34 44 45 46 41 40 35 39 45 46 45 41 31 28 20 19 19 20 21 21 21 24 26 28 39 44 42 46 65 72 80 93 111 127 144 174
77 65 50 42 39 32 31 30 28 26 27 34 41 44 45 47 50 54 59 66 69 68 65 61 59 54 47 49 46 50 59 66 69 72 72 74 76 78 74 74 78 82 88 89 89 93 99 102 105 106 111 120 131 138 142 149 157 162 168 177 184 193 196 200 201 210 216 219 221 222 219 219 214 213 211 211 206 204 209 211 210 213 214 215 210 211 216 210 202 195 186 181 178 163 152 138 138 128 123 124 117 98 91 90 89 84 84 89 88 76 72 73 74 79 79 78 73 74 74 76 73 76 78 80 80 80 81 82 81 79 77 71 66 56 46 37 30 24 19 16 15 13 11 8 6 6 5 5 7 7 8 8 8 9 10 13 19 19 20 21 19 16 14 15 14 13 14 19 26 31 28 24 23 26 30 34 39 45 52 61 66 73 79 88 91 97 96 96 90 89 90 91 93 93 99 104 105 98 89 83 76 69 63 49 41 30 27 21 17 20 24 20 20 20 20 19 16 15 21 26 34 40 46 52 46 41 40 41 44 47 47 32 27 26 20 19 19 15 15 15 19 21 21 23 30 39 37 40 50 64 77 89 108 122 141 169
77 66 52 44 39 30 27 27 26 24 24 31 39 42 44 47 49 49 54 63 68 67 66 64 61 57 52 52 49 54 67 71 71 76 78 80 79 78 76 76 78 82 88 89 89 91 99 104 104 106 109 118 128 135 140 146 155 161 169 178 181 189 197 199 201 209 215 218 220 220 216 216 211 207 208 209 204 207 209 208 206 200 201 206 202 206 211 207 200 194 179 174 175 171 158 149 141 128 111 110 115 107 98 91 87 82 88 90 89 80 77 77 79 78 80 79 78 80 81 81 79 81 79 79 80 78 79 82 81 77 72 67 61 52 46 37 32 27 20 15 14 12 11 8 6 5 5 5 5 6 7 9 10 8 8 10 15 16 19 20 17 15 15 13 14 13 14 19 24 27 26 24 24 27 30 37 41 47 54 61 67 76 84 88 91 96 96 93 93 90 89 90 89 90 94 102 103 94 89 84 78 73 68 59 47 35 31 26 21 21 23 17 14 15 15 16 17 16 20 28 37 45 49 56 47 44 44 49 45 44 40 28 21 19 16 14 14 13 12 13 15 17 19 21 26 31 31 32 40 57 72 88 101 118 138 161
78 66 54 45 37 30 26 24 24 24 27 31 34 37 40 44 46 47 50 57 63 61 65 65 64 63 54 54 52 61 72 76 79 80 81 83 81 79 77 79 81 83 88 89 87 90 93 101 103 105 107 115 123 130 137 142 150 160 169 175 181 184 191 196 201 208 213 218 222 221 217 213 208 204 203 206 207 207 207 207 207 198 196 201 203 203 206 202 193 185 172 168 171 175 169 166 146 126 103 102 108 103 96 89 84 84 91 92 89 84 79 77 77 78 83 83 86 88 88 88 84 82 81 80 79 77 77 78 79 77 72 67 63 50 46 41 35 30 23 17 15 13 11 9 7 5 5 5 5 6 7 9 9 7 8 10 13 14 14 14 14 15 16 15 16 14 14 17 19 21 23 24 27 28 32 39 44 52 59 65 70 77 84 88 91 94 98 92 90 89 90 90 89 89 93 102 99 90 88 87 80 78 70 65 52 45 39 27 20 17 21 20 13 13 15 19 19 19 19 21 27 37 40 47 50 54 49 46 49 45 35 26 16 14 14 12 11 11 11 12 13 14 16 20 26 27 27 28 30 41 61 83 99 115 130 150
81 68 54 45 37 30 24 23 20 21 26 30 32 31 37 39 40 40 42 47 47 50 52 64 64 59 61 59 59 65 73 81 86 87 86 88 86 83 83 83 84 87 88 88 84 87 89 93 97 99 107 117 122 127 134 140 146 157 162 168 175 179 185 191 200 207 211 218 220 218 214 208 199 195 195 194 201 207 202 202 201 198 193 199 204 206 208 202 195 179 176 177 168 175 181 172 152 120 105 102 108 104 94 87 88 90 92 90 89 83 81 80 78 80 86 89 89 91 89 88 86 83 83 81 80 78 76 76 77 76 70 66 63 56 47 44 39 32 27 20 16 14 12 9 7 5 5 5 5 5 6 7 6 6 6 7 10 13 11 12 13 15 16 15 14 14 14 15 16 17 19 23 26 30 32 40 47 57 64 67 71 79 86 89 90 93 94 89 88 89 89 89 89 88 90 93 93 89 86 83 82 74 70 66 59 50 44 28 17 15 14 15 13 15 16 21 26 24 23 19 24 31 31 37 44 47 47 42 44 40 32 24 19 16 15 12 10 11 10 10 13 14 16 20 21 23 20 20 21 26 41 67 89 106 118 133
86 72 57 45 35 30 21 16 15 17 24 31 32 32 34 34 31 32 31 34 35 37 42 56 61 61 61 59 59 64 71 81 89 91 91 93 91 89 88 86 84 86 87 84 83 84 88 90 91 98 106 113 118 123 128 137 142 152 158 162 171 177 182 184 193 200 204 211 213 209 204 199 190 184 178 176 184 192 194 196 195 193 188 193 203 210 211 207 197 181 179 185 177 169 177 176 160 131 112 112 116 116 110 92 89 89 87 87 86 82 81 84 82 83 88 89 91 94 91 89 88 86 87 83 82 79 78 77 78 74 70 66 63 57 49 45 40 35 28 23 17 15 12 9 7 6 5 5 5 5 5 6 5 5 5 6 9 11 10 10 11 12 11 12 13 13 14 15 16 16 19 23 26 30 35 42 50 64 68 72 76 81 87 88 89 90 89 88 86 86 87 86 86 88 89 90 90 88 84 84 82 76 70 69 68 61 49 31 17 12 9 12 12 15 21 27 26 27 24 20 23 24 21 23 26 34 41 41 42 39 31 24 20 20 19 13 9 9 10 10 14 16 17 19 17 16 14 13 14 20 31 54 73 89 102 116
82 71 54 41 32 27 19 14 14 16 23 30 34 34 31 27 24 28 28 28 28 31 37 46 52 59 61 57 61 66 72 82 89 93 94 94 98 90 88 86 86 83 84 84 84 82 84 88 88 91 103 110 115 119 126 134 140 147 157 160 163 169 176 178 186 192 196 202 203 203 200 195 182 175 166 163 165 168 184 191 190 191 184 185 199 203 207 207 199 186 185 185 186 181 177 177 163 150 135 125 118 125 123 106 101 91 84 84 83 83 80 86 87 88 92 97 98 98 92 89 89 89 89 86 83 80 80 79 78 74 71 67 63 57 50 45 41 37 31 26 21 17 14 11 8 7 6 5 5 5 5 5 5 5 5 5 8 8 9 8 9 10 10 11 12 12 14 15 16 17 20 23 27 32 39 45 56 66 71 77 81 84 87 88 89 89 88 87 84 82 83 83 83 88 88 87 87 87 87 86 83 81 80 76 76 70 57 39 23 14 10 13 13 16 23 30 30 31 23 19 21 23 17 17 21 27 34 34 34 31 24 20 17 17 17 13 10 9 10 10 13 16 16 16 15 14 11 10 11 15 23 44 66 79 90 107
77 68 54 41 32 27 19 14 14 16 21 26 31 34 30 27 27 27 27 27 27 28 37 42 46 49 54 56 59 68 77 84 89 91 96 97 99 90 87 84 84 83 83 83 84 82 82 84 84 89 97 104 109 115 123 131 138 143 152 155 156 161 168 174 178 184 189 191 192 195 194 189 176 163 157 156 153 155 162 177 180 178 177 182 195 195 196 201 195 189 180 177 184 184 178 174 159 157 155 139 131 133 128 122 109 93 88 88 88 84 82 88 90 90 97 102 103 101 97 93 90 90 90 88 84 82 82 82 79 77 74 68 64 59 52 45 41 37 32 28 24 20 15 12 10 9 7 6 6 6 6 6 5 5 5 5 7 7 7 7 7 8 9 10 10 10 13 14 15 17 20 23 30 35 41 47 59 67 72 79 83 86 88 89 89 89 89 88 84 81 79 81 87 88 84 82 81 84 87 87 88 88 89 83 78 69 57 40 26 17 12 14 16 16 19 27 28 28 27 21 19 20 16 16 24 27 24 26 27 24 17 16 14 13 14 13 11 9 10 10 12 15 13 12 12 11 10 9 10 15 24 35 52 72 87 106
77 67 52 41 32 27 21 21 20 20 23 24 27 31 31 28 28 27 28 27 26 30 35 40 44 45 49 52 57 68 78 87 90 92 97 98 97 89 87 86 86 83 83 84 84 83 84 82 79 88 93 99 106 112 122 124 127 133 141 146 149 152 156 162 166 174 176 175 179 188 185 175 161 153 147 142 140 143 149 156 160 163 177 185 193 194 193 195 188 185 178 175 178 180 172 169 174 165 162 159 147 138 131 125 106 97 90 90 89 87 86 89 94 97 99 101 104 104 99 98 94 93 92 89 88 86 83 82 79 78 76 70 66 63 54 46 41 37 32 30 24 20 16 13 11 10 9 7 7 6 6 5 5 5 5 5 6 6 5 6 6 7 7 8 8 10 11 12 14 16 20 24 31 37 44 50 61 69 74 80 84 88 89 90 90 91 90 89 87 82 78 79 87 88 84 82 83 84 86 88 88 88 89 84 73 64 50 39 30 23 14 13 15 16 16 19 17 21 30 30 21 16 19 20 23 27 27 26 21 17 13 14 12 10 11 11 10 9 11 12 12 13 11 11 11 10 10 10 11 15 21 31 47 64 76 97
82 70 57 45 34 28 28 30 26 24 24 23 27 30 30 31 30 28 27 26 26 27 31 35 37 40 41 46 54 65 76 89 92 94 97 101 97 90 88 86 86 87 84 84 84 87 86 84 82 88 92 101 106 111 115 116 120 124 128 137 139 141 146 153 157 163 169 163 171 176 165 156 150 150 149 141 135 134 139 141 150 162 172 180 190 193 193 190 185 179 177 174 169 176 176 179 180 176 179 176 165 147 141 139 117 107 96 90 90 89 88 89 98 104 103 102 103 104 103 102 98 97 94 91 90 87 84 82 81 79 74 70 66 63 56 47 42 37 32 28 24 20 16 13 12 11 9 7 7 6 6 5 5 4 4 4 4 4 4 5 5 5 6 6 6 8 10 12 13 15 19 24 31 39 46 54 64 70 77 82 88 89 90 92 93 94 93 90 89 87 81 82 87 89 88 86 88 89 89 89 89 89 89 84 71 59 45 39 35 32 21 15 15 14 15 17 16 19 28 32 27 21 21 20 23 24 30 28 23 16 13 11 10 9 11 13 12 11 11 13 11 11 11 11 10 9 10 9 11 14 20 34 45 59 69 88
86 77 67 54 40 35 34 35 32 28 26 24 26 28 31 34 32 30 27 24 23 23 27 31 32 35 39 44 52 63 71 84 90 96 98 99 99 92 89 88 87 87 86 86 86 87 86 86 89 92 97 99 103 105 107 109 111 112 115 119 123 130 138 144 150 157 163 161 163 160 147 138 140 141 141 135 130 131 133 138 152 159 162 175 182 191 192 186 177 176 177 172 172 178 181 177 179 186 188 180 171 152 143 141 123 108 101 94 90 91 91 93 98 106 105 104 103 104 104 105 103 102 96 93 90 88 84 83 82 80 73 70 66 64 57 49 42 37 32 28 24 20 16 14 12 10 9 8 6 6 5 5 4 4 2 2 4 4 2 4 4 4 5 5 6 7 9 10 12 14 17 24 31 39 46 54 65 72 79 84 89 90 92 94 97 97 96 94 92 90 89 89 90 92 93 91 92 93 90 92 93 92 89 79 63 46 40 39 40 37 31 20 15 12 13 14 15 16 26 31 28 26 26 28 27 26 28 27 24 15 11 9 7 7 10 14 14 12 11 11 10 9 10 11 10 9 10 11 13 17 24 37 46 57 73 87
88 79 68 57 47 41 35 37 40 35 28 26 26 28 31 32 31 28 26 23 21 21 24 28 31 34 37 41 46 56 66 74 86 91 96 94 94 89 87 86 86 83 83 83 84 87 88 87 89 92 96 97 98 99 101 102 103 103 105 108 112 123 127 135 141 146 149 150 149 142 133 128 124 120 120 120 122 125 128 139 147 153 165 172 175 182 181 177 177 174 166 160 162 172 181 178 178 182 184 180 165 141 130 127 119 109 104 93 91 97 99 105 106 106 106 110 108 106 107 109 106 103 96 94 90 89 88 88 87 79 73 70 65 63 57 49 42 37 32 28 24 20 16 14 12 10 8 7 6 5 5 4 4 2 2 2 2 2 2 2 2 2 4 4 5 6 8 10 12 14 17 23 30 37 45 54 66 73 80 84 89 92 94 97 99 99 97 96 96 94 93 93 93 93 96 96 97 98 93 93 96 97 88 72 56 40 39 42 44 40 31 23 17 14 14 14 15 16 21 30 30 31 27 28 28 27 26 21 19 14 10 7 6 8 9 11 11 10 11 11 10 10 9 11 11 10 12 16 21 26 30 39 47 59 78 90
86 77 66 57 47 41 39 39 40 35 31 30 28 30 30 31 28 26 24 23 23 23 26 28 31 34 37 41 45 54 65 70 78 88 90 90 90 89 84 84 82 80 79 82 82 84 84 84 86 89 90 91 91 96 97 98 96 96 99 102 106 116 120 127 130 131 133 135 138 134 127 119 108 108 110 115 118 126 134 143 149 153 160 162 165 168 163 161 162 161 158 156 149 155 161 166 168 165 175 171 156 142 133 125 119 109 103 94 94 98 105 109 107 107 107 112 116 115 118 118 115 109 103 101 93 90 89 89 86 78 72 67 64 61 56 47 41 35 30 27 23 19 16 13 11 9 8 7 6 5 4 4 2 2 2 2 2 2 1 2 2 2 2 4 4 6 7 9 11 13 16 21 28 37 44 52 65 72 79 84 89 92 96 98 101 101 99 98 99 101 99 99 98 96 98 105 102 96 97 96 103 103 89 74 63 50 44 42 39 37 27 19 17 17 16 16 19 21 24 26 28 27 24 24 27 28 24 19 15 13 11 7 6 7 8 8 8 9 9 8 9 8 8 10 11 11 13 19 30 34 42 47 56 66 82 89
82 73 65 56 49 41 41 41 40 39 35 34 32 31 31 28 26 24 24 24 24 24 26 28 31 34 37 41 45 54 66 71 77 83 87 86 88 88 86 82 79 77 76 79 81 80 83 80 80 83 86 88 89 90 90 90 90 91 97 99 104 110 118 124 125 123 123 125 126 128 123 113 104 101 107 115 118 124 131 141 144 149 156 156 158 157 152 147 142 142 141 141 141 141 143 155 156 153 153 149 149 146 139 131 127 113 102 94 94 101 104 106 108 110 112 116 122 127 130 128 127 119 113 108 101 93 91 89 82 77 71 66 63 56 50 44 39 32 28 24 20 17 15 12 10 8 7 6 5 5 4 4 2 2 1 1 1 1 1 1 1 1 2 2 4 5 6 8 10 13 16 20 27 35 44 52 64 72 79 84 89 92 98 101 102 103 103 103 103 104 103 103 103 99 103 107 103 101 103 101 105 101 89 81 69 64 54 44 39 35 26 20 20 20 16 15 17 20 23 24 24 23 23 21 20 23 21 16 13 11 10 7 6 5 6 7 8 8 7 7 8 7 9 12 12 12 13 21 37 45 63 64 68 77 82 81
77 70 65 54 46 40 41 42 40 39 35 34 34 32 31 27 24 24 24 24 26 26 27 28 31 35 37 41 46 54 65 70 76 81 84 87 87 86 83 80 78 78 77 78 81 79 80 80 81 83 86 86 88 88 89 88 88 88 90 90 96 103 113 116 117 119 117 117 120 123 115 106 102 94 97 109 119 125 127 130 138 141 147 155 158 156 150 144 140 137 133 134 137 133 131 140 140 140 138 138 143 142 138 128 122 112 105 102 98 103 108 108 113 118 126 128 134 140 138 135 138 131 123 110 102 94 91 88 80 73 68 61 56 52 47 41 35 30 26 21 19 16 13 11 9 8 7 6 5 4 4 2 2 1 1 1 1 1 1 1 1 1 1 2 4 4 6 7 9 12 15 20 26 34 42 52 64 71 78 87 90 96 101 104 106 105 106 107 108 108 103 101 105 107 112 116 117 112 109 111 109 101 89 86 71 65 63 54 47 44 35 27 26 24 20 19 19 21 21 17 17 20 20 16 14 14 16 17 13 11 9 7 5 4 6 7 9 8 8 8 8 8 9 13 16 15 15 27 49 67 76 68 72 86 82 87
72 68 64 52 45 40 40 41 40 40 37 34 37 34 30 26 26 26 26 27 28 28 30 31 32 35 39 42 47 54 64 69 74 79 84 88 87 86 83 81 79 78 76 77 77 78 79 82 83 86 87 87 84 87 84 81 80 82 83 83 88 93 103 107 108 115 117 117 116 115 113 108 103 94 92 103 115 118 122 124 133 140 147 157 155 149 149 144 137 127 128 135 135 137 134 131 127 131 131 134 138 137 131 125 120 108 105 103 104 108 115 116 122 130 140 140 143 143 142 141 141 137 125 112 103 93 90 87 80 71 65 57 50 46 42 39 32 28 24 20 17 14 12 10 9 7 6 5 5 4 2 2 1 1 1 0 0 0 0 0 0 1 1 1 2 4 5 7 9 11 14 19 26 32 42 52 63 70 78 87 92 99 105 108 109 109 109 109 109 106 101 99 99 109 116 118 124 122 117 111 109 96 92 86 77 70 61 54 49 46 39 34 34 31 27 30 30 26 26 21 19 20 20 16 13 12 15 16 14 11 9 7 6 5 7 8 9 7 7 8 7 9 11 14 16 16 21 42 67 80 81 76 81 89 94 96
70 65 59 50 45 41 39 40 41 41 39 37 39 35 31 28 28 28 30 30 31 31 32 32 34 35 41 45 49 56 63 69 73 79 84 88 88 88 83 82 79 77 74 74 76 76 76 78 79 82 84 83 84 82 79 76 77 78 74 72 80 88 91 96 99 107 117 118 116 112 111 108 107 106 98 102 110 115 118 125 139 141 146 147 146 143 144 140 135 126 128 137 135 131 124 119 120 126 126 126 125 125 127 120 111 106 105 105 111 117 123 124 130 139 143 144 149 150 152 149 147 141 127 112 103 92 89 87 79 69 63 54 47 44 39 35 30 26 23 19 15 13 11 10 8 7 6 5 4 4 2 2 1 1 1 0 0 0 0 0 0 0 1 1 1 2 4 6 8 11 14 17 24 32 41 50 61 70 79 88 93 103 110 113 113 113 113 112 109 104 97 99 102 111 119 124 123 124 122 111 105 103 102 90 87 70 57 50 47 46 42 42 41 35 32 35 39 39 35 27 21 21 21 17 15 13 13 12 12 10 9 9 7 6 8 9 9 8 9 8 7 7 10 14 14 19 31 56 77 84 80 80 90 94 97 101
66 63 56 50 47 44 41 42 44 41 39 37 39 37 32 31 31 32 32 32 34 35 37 37 39 40 42 47 50 57 64 69 73 80 86 88 89 87 84 86 82 77 73 73 77 74 73 73 77 78 80 80 81 74 72 71 73 70 70 71 79 88 90 97 102 106 111 108 105 104 104 102 105 110 107 105 109 118 120 124 137 138 140 137 140 141 142 137 134 127 131 133 130 127 118 111 115 123 124 122 117 119 116 110 107 104 103 105 112 116 120 126 135 142 146 144 144 146 152 155 155 142 133 117 106 94 90 88 79 69 61 54 47 42 37 32 28 24 20 17 14 12 10 9 8 7 6 5 4 4 2 1 1 1 0 0 0 0 0 0 0 0 0 1 1 2 4 5 7 10 13 17 24 32 41 50 64 72 83 89 98 108 116 119 119 118 118 116 113 108 103 101 104 112 125 137 139 137 135 127 111 115 108 91 84 70 57 49 52 52 49 45 39 40 40 42 40 42 35 24 23 23 23 23 20 15 11 10 10 9 9 9 6 5 6 7 8 9 10 8 8 9 10 11 13 23 35 56 74 83 81 87 96 99 99 108
61 57 54 47 46 44 41 42 42 40 37 34 37 35 34 32 34 35 37 35 37 40 41 41 42 44 45 47 52 59 65 70 76 83 88 89 89 88 88 87 82 76 73 73 73 74 71 71 72 72 73 71 72 70 70 69 68 68 67 73 81 87 91 98 99 105 106 107 102 94 96 97 101 112 112 107 110 118 118 123 133 135 134 126 133 138 133 133 137 134 133 127 125 123 112 104 104 113 117 116 109 107 106 107 106 104 101 101 105 113 118 122 133 141 147 144 142 143 150 159 163 153 140 125 112 102 94 89 79 70 63 52 46 41 34 30 26 21 19 16 13 11 9 8 7 6 5 4 4 2 1 1 1 0 0 0 0 0 0 0 0 0 0 0 1 1 2 5 7 9 13 17 26 32 42 54 66 76 88 92 104 113 122 125 124 124 123 122 118 115 105 101 104 112 125 134 141 140 143 138 125 119 109 89 78 66 59 54 61 63 54 45 46 45 46 46 41 41 34 24 26 30 30 28 26 16 13 11 10 10 9 7 5 4 5 6 7 8 9 7 8 10 12 12 14 20 28 44 66 83 89 89 98 96 99 110
57 54 49 45 42 42 42 42 42 40 39 34 34 34 35 35 39 40 41 40 40 41 44 45 46 46 47 52 61 66 68 72 80 86 87 88 88 86 86 86 82 76 73 71 70 71 68 67 66 67 67 66 66 66 65 66 66 67 68 76 82 84 89 91 97 103 103 104 93 89 93 97 99 112 112 107 110 119 126 135 140 138 130 126 133 133 126 126 127 130 131 128 125 120 108 99 98 106 105 99 99 103 98 102 101 101 98 103 105 112 118 123 133 140 144 146 144 144 152 161 166 158 141 125 112 101 91 88 80 70 63 52 45 39 32 28 23 20 16 14 12 10 9 7 6 5 4 4 2 2 1 1 1 0 0 0 0 0 0 0 0 0 0 0 1 1 2 5 7 10 13 19 26 35 44 56 68 79 89 97 108 119 126 131 131 130 128 127 122 116 110 105 108 115 122 134 144 141 142 139 135 126 106 88 73 59 63 65 59 57 64 63 61 54 50 49 46 42 35 28 30 34 37 32 24 17 14 11 9 9 8 6 5 4 4 4 6 7 7 6 7 9 10 11 11 16 26 35 46 67 82 89 90 92 97 98
50 47 45 44 41 40 40 39 39 37 35 32 31 34 35 37 40 42 44 44 44 46 49 49 52 52 54 59 65 67 70 73 78 82 83 83 84 81 81 84 80 74 73 70 68 66 63 61 61 64 65 64 63 61 57 59 64 69 70 73 77 81 86 88 92 97 94 94 90 87 90 90 91 104 105 98 98 108 124 134 134 133 126 128 133 131 123 116 120 125 127 123 116 110 98 93 94 97 93 92 93 97 97 102 102 103 101 103 108 118 124 127 135 140 147 152 153 150 155 158 157 152 140 124 111 99 89 83 77 69 59 52 44 37 31 26 21 17 15 13 11 9 8 7 5 4 4 4 2 1 1 1 0 0 0 0 0 0 0 0 0 0 0 0 1 1 2 5 7 10 14 19 27 37 46 59 71 82 90 102 112 124 130 134 138 135 133 130 125 116 115 108 107 110 118 134 139 138 142 144 146 138 112 89 74 71 72 68 64 61 67 74 69 66 57 50 45 37 31 28 28 32 37 31 23 17 13 11 9 8 7 6 6 6 4 5 6 5 6 7 8 9 9 9 11 15 23 31 34 44 56 76 80 87 87 89
44 41 40 40 39 35 35 35 34 34 32 30 31 32 34 37 41 44 46 49 52 57 59 59 64 64 64 65 66 66 69 72 76 78 79 80 77 78 81 81 78 73 73 69 67 61 56 54 57 59 63 63 59 54 52 52 61 68 71 71 76 83 86 89 92 93 91 88 84 83 84 87 90 97 102 94 94 101 112 120 124 122 122 125 133 128 119 116 120 123 127 120 115 106 97 91 90 91 90 91 92 94 101 106 107 109 106 108 118 127 133 135 139 141 147 156 156 149 147 149 146 142 134 123 111 101 88 80 73 66 56 47 41 35 28 23 17 16 14 12 10 8 7 6 5 4 2 2 2 1 1 0 0 0 0 0 0 0 0 0 0 0 0 1 1 2 4 5 7 10 14 20 28 39 49 64 74 87 93 105 117 126 133 138 140 138 134 133 126 118 112 108 103 104 115 122 130 138 143 152 152 134 111 90 84 89 88 80 74 79 81 88 83 74 64 47 41 30 27 28 32 34 40 34 24 19 15 13 10 8 8 8 8 7 6 6 6 5 6 9 9 8 8 8 10 14 19 20 24 28 37 59 68 74 82 88
39 37 35 34 32 32 32 32 31 30 28 30 31 34 35 39 42 45 50 56 63 67 68 70 71 72 74 73 70 69 70 73 79 79 77 78 76 78 82 79 76 74 72 66 63 54 49 47 49 54 56 56 54 52 52 54 61 68 71 73 78 83 88 90 93 96 93 86 80 82 83 88 90 89 91 94 102 101 104 112 115 112 118 119 123 124 119 123 122 119 122 120 116 107 99 97 96 92 91 91 92 96 105 112 116 115 115 123 131 135 140 141 144 150 150 153 156 144 141 139 137 135 125 116 109 99 88 78 71 65 56 46 39 30 23 19 16 15 13 11 10 8 7 6 5 4 2 2 1 1 1 0 0 0 0 0 0 0 0 0 0 0 1 1 1 2 4 6 8 11 15 23 31 41 52 66 78 89 98 108 119 130 138 141 142 142 138 135 128 120 113 108 104 107 105 103 110 135 153 158 147 130 111 101 101 106 99 90 90 93 89 89 89 78 66 49 37 30 30 31 37 40 41 32 23 17 16 14 12 11 9 8 10 10 7 6 6 6 7 8 8 7 7 7 7 11 13 13 16 21 32 54 65 68 74 89
31 31 30 30 30 28 30 30 28 28 27 30 31 32 34 37 42 46 52 61 67 72 74 77 79 78 81 81 78 77 76 81 84 81 77 78 78 77 79 77 73 73 69 64 57 50 46 47 46 49 49 49 45 46 47 52 59 67 70 78 82 84 88 90 94 91 90 82 77 74 77 80 87 88 89 102 105 107 103 109 113 111 116 118 123 127 125 126 125 124 120 116 110 99 92 93 96 93 93 96 99 102 111 120 120 122 124 131 141 143 146 149 156 157 153 156 155 144 138 134 127 125 120 113 107 96 88 79 70 63 52 44 34 26 21 16 15 13 12 11 9 8 6 5 4 4 2 2 1 1 1 1 0 0 0 0 0 0 0 0 0 1 1 1 2 2 5 6 9 12 16 24 32 44 57 69 80 90 102 111 122 134 140 144 144 143 139 137 135 131 123 111 103 101 97 97 102 122 141 152 142 141 128 115 111 118 115 117 117 107 96 92 91 80 66 50 39 32 32 35 39 39 35 30 20 16 16 15 12 12 12 10 12 13 11 9 9 10 9 8 7 6 6 6 7 10 12 13 17 24 41 52 64 65 72 79
27 27 26 27 27 26 26 26 26 26 28 31 31 31 31 35 42 47 52 63 68 77 81 86 87 86 84 87 83 86 87 88 87 83 74 77 80 80 77 73 69 65 59 59 52 49 46 47 47 46 45 42 39 39 44 49 57 67 73 79 83 88 89 94 96 90 89 81 73 70 70 74 81 89 96 102 105 110 106 105 109 112 120 126 130 127 125 127 126 124 116 109 103 94 90 90 93 96 98 101 106 111 115 124 128 130 133 139 147 150 152 157 163 160 160 159 155 149 141 135 123 117 111 106 102 94 88 78 67 57 49 41 32 24 21 16 14 13 11 10 8 7 6 5 4 4 2 1 1 1 1 1 1 1 0 0 0 0 0 1 1 1 1 2 2 4 5 7 10 13 19 27 35 46 61 71 83 92 105 115 125 137 141 147 149 143 139 139 140 142 137 122 109 98 99 99 104 109 120 135 137 143 141 131 125 127 130 141 128 113 102 93 86 73 57 44 35 32 32 32 31 32 27 23 16 14 13 14 14 13 13 12 12 16 15 14 13 13 12 9 8 7 7 7 8 10 13 14 19 23 39 54 67 72 74 77
24 23 21 23 23 24 24 24 26 27 28 30 28 28 31 35 40 46 52 66 72 77 79 87 89 89 87 88 83 87 89 90 88 83 73 76 81 79 72 68 64 57 49 47 44 42 44 45 44 40 39 35 34 34 42 49 57 66 71 73 79 86 89 94 96 92 88 80 77 76 76 77 79 88 93 101 105 107 106 106 110 118 127 127 127 126 125 128 127 125 118 116 107 97 93 93 99 101 101 106 111 115 120 128 135 137 141 146 153 155 158 160 162 161 163 159 158 153 143 134 116 105 98 92 91 89 83 76 66 57 47 39 28 23 21 17 14 13 11 10 8 7 6 5 4 4 2 2 1 1 1 1 1 1 1 1 0 1 1 1 1 2 2 4 4 5 7 9 12 15 21 30 40 50 66 76 88 96 108 118 130 140 142 146 150 150 144 146 147 155 150 137 119 101 99 99 101 102 106 117 127 137 131 133 134 138 141 153 141 122 109 92 73 61 47 39 34 31 28 27 27 32 30 23 16 13 12 14 15 12 11 12 13 16 17 16 15 14 13 12 10 9 8 9 10 12 14 14 20 27 37 50 70 77 74 76
20 20 20 21 21 23 21 23 24 27 28 27 26 26 28 34 39 44 54 67 72 73 74 82 86 86 84 88 87 88 89 90 84 79 71 74 78 74 68 63 59 49 45 42 40 40 41 42 42 39 32 31 30 32 41 45 49 61 66 68 73 79 86 89 89 88 83 83 78 74 78 76 73 78 88 98 97 99 106 106 115 125 130 126 128 131 130 131 128 126 120 120 111 106 103 105 107 108 106 110 117 118 124 130 137 139 147 155 158 159 159 161 161 161 161 159 157 150 143 128 112 99 90 89 88 86 78 73 68 59 50 39 28 21 20 17 15 13 12 10 8 7 6 5 4 4 2 2 1 2 2 1 1 1 1 1 1 1 1 2 2 2 4 5 5 7 8 10 13 19 26 34 44 57 69 80 89 99 110 122 134 142 147 149 153 153 152 155 156 163 165 155 131 112 106 101 99 93 99 109 122 120 120 134 137 143 150 157 142 124 110 89 71 54 44 37 32 27 23 23 26 31 31 24 17 13 11 12 11 10 10 14 14 16 20 20 19 19 17 14 11 9 9 8 11 14 17 19 27 32 42 59 76 82 83 79
17 17 19 19 19 20 20 21 24 26 26 26 26 24 27 30 34 40 52 65 69 69 74 82 80 76 77 83 86 89 87 86 79 73 68 69 71 72 61 54 52 49 45 41 40 39 41 41 41 39 35 31 30 34 41 44 47 59 64 64 68 71 77 79 81 78 77 79 74 72 72 71 68 72 82 91 97 99 104 105 113 123 125 127 131 124 120 124 127 130 127 120 112 108 105 107 113 118 116 117 119 117 123 135 141 143 153 155 159 162 159 159 160 160 161 157 153 150 142 124 109 96 89 88 84 81 73 70 69 64 50 40 31 23 19 17 15 14 12 10 9 7 6 5 4 4 2 2 2 2 2 2 2 2 2 2 2 2 2 2 4 4 5 6 7 8 10 12 16 21 30 39 49 63 73 83 91 103 112 123 137 143 150 152 153 155 156 159 161 168 174 166 143 123 110 102 98 97 103 102 110 110 109 119 130 140 146 156 140 118 99 81 67 52 46 39 28 23 23 23 27 30 31 23 17 13 10 9 10 11 11 14 15 17 23 26 24 20 20 16 14 10 9 9 11 17 21 21 28 37 50 66 82 90 97 90
15 16 17 17 17 19 19 20 23 23 24 26 24 24 27 30 34 39 46 57 64 68 74 80 83 78 78 83 87 86 81 80 76 69 66 67 66 67 64 57 50 46 42 41 41 40 39 40 39 35 35 31 30 35 41 44 52 64 67 65 66 65 68 70 73 70 67 67 69 70 71 74 70 72 83 91 101 106 107 107 119 130 127 126 125 123 111 110 116 118 116 113 110 109 104 105 111 119 118 119 123 120 126 135 137 141 150 153 155 161 161 160 161 163 162 153 142 143 137 120 109 99 89 84 83 81 76 70 69 64 54 44 35 27 20 17 15 14 12 10 9 8 7 6 5 4 4 2 2 2 2 2 2 4 4 4 4 4 4 5 5 6 6 7 8 10 12 15 20 27 34 44 56 67 78 88 96 106 116 126 137 144 153 158 159 159 160 165 169 175 181 175 152 135 118 108 102 101 104 102 97 94 103 111 120 120 125 133 128 111 91 76 66 54 50 40 28 23 27 30 34 37 37 24 17 13 10 9 10 10 11 15 21 26 32 32 30 21 21 19 16 16 16 14 16 26 28 27 31 40 56 66 84 91 104 98
15 15 15 15 15 15 16 17 19 20 21 20 21 23 27 30 32 34 41 50 57 65 70 80 84 79 80 88 84 81 78 73 71 63 63 64 64 65 63 52 46 41 41 42 45 42 40 40 37 37 32 31 31 37 44 46 54 65 70 65 64 65 63 63 64 63 56 56 61 67 72 76 70 74 87 93 109 117 111 111 118 130 125 118 123 115 102 103 104 102 102 96 101 104 105 105 109 116 119 123 124 126 130 127 130 138 152 157 159 166 166 165 163 165 160 153 141 134 125 115 107 98 90 88 86 82 79 76 70 67 63 50 41 32 26 20 17 14 12 11 10 9 8 6 5 5 4 4 4 4 4 4 4 4 5 5 5 6 6 6 7 7 8 9 11 13 15 19 26 32 40 49 63 72 82 90 101 110 118 128 138 143 153 159 162 165 166 174 174 178 179 169 153 139 125 110 104 102 94 93 90 89 98 104 115 115 117 119 118 104 92 79 69 64 61 49 35 28 31 39 41 41 35 21 16 14 12 11 10 11 13 20 31 37 40 39 31 27 27 27 23 24 21 23 26 28 40 42 40 47 57 71 86 94 99 101
14 14 13 13 13 13 14 14 15 16 16 16 17 20 23 26 26 26 28 35 45 56 61 70 76 72 77 88 88 84 83 80 73 61 56 49 50 52 52 54 47 35 34 40 45 44 40 37 39 40 37 32 35 41 45 50 59 65 69 68 63 59 56 52 52 56 52 52 56 61 65 73 72 76 83 93 109 116 112 116 116 122 124 117 112 106 98 99 101 96 89 90 91 92 99 102 104 109 118 127 131 133 133 130 133 139 155 165 174 178 178 174 168 163 160 156 143 131 122 112 106 94 90 89 86 82 83 80 73 68 61 56 46 40 32 24 20 17 14 13 12 10 9 8 7 6 5 5 5 5 5 5 5 5 6 6 7 7 8 8 9 10 11 12 13 15 19 24 30 39 45 56 68 77 88 94 104 113 123 131 139 144 153 160 163 168 171 176 178 178 172 160 144 131 120 110 103 98 91 88 87 88 91 97 112 118 116 117 122 111 101 89 86 74 73 66 45 32 37 46 45 40 30 19 17 15 14 13 12 14 16 24 35 40 40 40 37 34 31 32 32 32 32 39 35 35 45 52 45 50 64 76 90 104 98 98
13 12 12 11 11 12 11 12 12 13 14 14 14 16 17 20 19 20 20 24 31 39 40 49 63 65 70 79 89 89 88 80 67 47 44 42 41 40 42 47 40 31 30 35 45 47 45 40 40 41 41 37 39 42 50 61 68 71 69 69 59 47 46 41 40 44 47 52 56 64 68 77 76 72 77 90 103 111 109 108 117 118 116 109 103 103 106 102 96 98 92 89 89 89 97 101 101 107 118 125 133 135 134 137 141 144 160 172 179 179 177 169 165 160 156 153 146 135 122 110 105 94 90 88 84 82 86 82 77 70 64 61 50 44 35 28 26 21 17 16 14 12 11 9 8 8 7 7 6 6 6 6 6 7 7 7 8 9 9 10 11 12 13 15 16 20 24 30 35 44 52 64 73 82 90 101 109 117 127 135 141 150 156 161 168 172 174 178 180 178 169 158 140 125 107 101 94 89 86 80 73 79 89 94 113 122 116 119 125 123 113 97 101 94 82 70 47 32 42 46 35 31 26 19 16 13 12 12 12 14 16 24 35 42 39 40 44 40 37 34 35 35 40 45 47 47 54 56 44 50 63 69 83 92 89 94
11 11 11 11 10 9 9 10 11 11 11 11 12 13 14 16 17 17 16 16 20 24 26 35 46 59 66 70 82 88 89 80 63 46 37 35 31 32 35 41 37 32 27 32 41 44 44 44 41 40 39 39 42 44 49 64 68 73 72 69 56 46 44 39 35 41 46 49 57 65 74 78 77 79 77 84 90 97 105 105 111 115 107 104 97 104 109 108 99 98 101 93 86 89 92 103 101 103 115 123 135 141 141 142 150 159 168 177 176 178 176 169 163 160 156 150 147 139 124 108 102 92 89 89 87 84 88 86 80 73 68 64 57 45 39 32 30 27 23 19 17 15 13 12 11 10 9 8 8 8 8 8 8 8 9 9 10 10 11 12 13 15 16 19 21 24 30 34 41 49 59 69 79 88 94 106 113 122 131 140 147 153 157 162 168 174 177 182 182 178 168 152 138 120 104 94 90 87 84 76 66 74 89 102 120 127 127 131 131 122 120 117 119 112 90 76 54 44 46 50 40 30 26 24 20 16 15 14 15 17 20 27 34 39 35 40 46 44 40 37 32 32 40 47 52 54 59 57 54 52 52 64 73 81 84 96
10 10 9 9 9 8 8 8 9 8 9 9 10 11 13 15 15 15 15 14 16 21 27 32 42 63 72 69 76 83 82 76 66 49 41 35 30 30 26 30 30 31 30 32 35 37 40 42 39 39 39 41 45 46 54 66 67 64 66 65 52 44 40 37 34 35 44 49 52 64 76 80 81 86 88 89 89 89 99 106 104 108 105 111 103 101 111 113 117 115 109 99 86 88 93 104 104 105 118 130 141 147 144 143 156 172 179 179 176 178 171 162 158 157 153 146 146 134 118 107 102 96 90 91 90 89 90 89 82 76 71 65 61 50 41 34 32 30 26 23 20 19 16 15 14 13 12 11 11 10 10 10 10 10 11 11 12 12 13 14 15 17 20 23 26 30 34 40 46 56 66 74 84 90 101 110 120 127 135 143 152 157 160 163 171 176 181 188 186 176 162 156 141 122 110 102 94 87 82 74 68 70 82 99 117 127 130 130 125 113 126 135 133 110 94 86 77 64 57 57 44 34 27 27 26 20 17 16 19 21 28 32 37 40 41 46 45 42 46 40 34 34 41 49 57 54 54 52 52 52 61 68 74 79 82 89
9 9 8 7 7 6 7 7 7 7 8 9 9 10 12 13 13 14 14 15 16 20 28 30 35 54 64 61 66 68 72 70 64 45 42 35 31 23 20 23 26 26 31 34 35 35 39 41 37 35 39 41 45 49 57 59 59 54 54 52 46 40 32 28 30 35 47 64 64 66 73 79 87 89 91 88 89 90 94 105 101 108 110 116 108 108 124 127 125 125 113 99 88 91 107 109 110 111 122 134 142 143 143 143 157 174 178 179 174 175 171 161 158 155 152 147 141 127 118 111 102 96 94 98 94 92 90 89 83 78 73 66 64 59 44 39 37 34 30 26 24 23 20 19 19 17 15 14 13 13 13 13 13 13 14 14 14 15 16 17 19 21 24 27 30 34 39 42 50 61 70 79 88 93 104 113 124 131 141 149 157 161 165 171 180 182 189 188 184 174 161 153 143 126 117 107 98 89 87 83 84 76 83 106 115 119 122 117 113 106 113 127 128 123 118 104 92 78 72 71 54 44 34 34 31 28 21 21 21 24 30 31 37 42 47 49 45 44 40 34 35 35 42 50 61 56 56 50 49 54 64 65 71 69 73 77
8 7 6 5 5 6 6 6 7 7 7 8 9 10 11 12 12 13 14 13 14 19 26 26 30 39 44 45 52 56 64 61 50 42 39 32 24 17 16 17 19 23 27 32 35 40 45 46 44 44 46 46 46 49 57 54 49 44 42 45 44 40 31 24 30 40 54 66 67 66 73 78 83 93 97 89 82 89 96 111 113 113 112 110 108 115 120 127 127 120 109 93 89 98 109 113 111 112 120 128 141 143 142 144 155 168 174 174 171 168 169 162 160 153 146 141 133 125 118 113 102 98 101 99 98 96 91 90 88 82 77 72 67 65 56 47 41 37 35 31 28 27 26 24 24 23 20 19 17 16 16 16 16 17 17 17 17 19 20 21 24 26 28 32 35 37 41 45 52 65 72 81 89 97 107 117 126 135 144 156 161 165 171 177 182 188 190 192 190 180 163 152 146 135 122 115 102 96 89 86 88 88 89 103 115 117 107 103 105 110 107 116 138 133 128 118 103 91 88 76 66 52 44 41 32 28 27 28 26 21 28 31 35 41 46 47 45 39 34 35 37 42 47 52 59 64 59 50 50 52 52 59 65 64 67 69
6 6 5 5 5 5 5 5 6 6 6 7 8 9 10 11 11 12 13 12 12 14 17 19 24 30 32 35 45 54 56 45 40 32 24 20 15 12 12 12 14 21 28 30 34 40 45 49 49 49 49 49 52 52 46 44 41 34 32 37 47 46 32 26 32 41 57 63 61 67 78 81 79 89 92 89 87 89 103 123 122 117 119 116 108 105 105 110 111 110 111 103 98 106 112 111 106 105 112 127 140 142 146 149 157 161 166 171 171 165 163 160 157 150 139 130 127 123 117 112 104 99 102 101 101 98 91 90 89 88 83 79 72 70 67 59 49 44 40 35 34 32 30 30 27 26 24 23 23 21 21 21 21 21 21 21 23 23 24 26 28 30 32 35 39 40 42 47 56 66 73 82 89 99 112 124 133 139 146 156 162 166 174 177 181 189 192 194 192 182 163 157 149 137 124 120 111 102 89 83 86 87 87 104 127 123 106 103 104 115 108 113 134 131 124 111 103 98 93 89 79 65 59 56 44 34 30 26 26 21 20 21 24 30 39 41 37 30 28 34 39 42 49 50 56 59 54 46 45 45 42 47 47 45 47 52
5 5 4 4 4 4 4 5 5 5 6 6 8 8 10 10 11 12 13 12 12 12 12 14 16 24 24 26 35 44 44 35 27 23 14 11 9 7 6 7 9 15 24 30 34 39 42 54 56 50 49 47 49 50 45 39 37 32 35 37 42 46 40 41 45 54 64 61 59 59 67 70 77 92 99 96 89 91 115 119 113 111 117 122 105 99 97 96 97 102 108 112 106 110 116 108 101 94 110 126 131 141 149 150 158 163 169 171 169 165 166 169 160 149 135 126 124 117 112 108 109 104 102 101 102 102 99 98 94 91 89 88 83 79 76 69 57 50 45 40 39 37 34 32 32 30 28 28 28 28 27 27 26 27 27 27 27 28 30 31 32 35 39 41 42 45 47 52 61 67 74 81 89 102 115 126 135 139 143 152 159 163 172 176 184 189 195 196 195 190 172 163 157 144 133 128 119 108 98 89 87 89 89 105 127 130 110 104 103 116 117 122 124 122 125 111 109 111 109 105 88 72 66 59 46 39 26 21 17 14 14 16 19 24 34 37 34 34 31 37 42 49 59 57 50 52 50 49 46 42 39 41 40 39 37 41
4 4 4 2 4 4 4 4 5 5 5 6 7 8 9 10 11 12 12 11 11 11 10 11 14 20 17 20 28 34 32 24 21 17 11 8 6 5 5 5 6 10 16 27 34 37 44 52 50 46 46 49 45 46 41 34 30 32 34 35 35 42 46 57 66 67 69 64 61 59 50 50 73 91 92 89 90 99 111 113 108 105 110 115 106 99 96 89 89 90 101 109 112 109 115 111 101 97 106 120 127 138 147 156 159 165 172 168 171 172 171 176 165 150 140 134 127 120 115 110 111 111 109 106 108 109 107 104 104 102 98 96 92 89 81 73 65 57 54 46 44 42 40 40 39 35 34 34 35 35 34 32 32 32 32 32 31 34 35 35 39 41 44 45 46 50 56 61 66 71 77 82 89 102 111 122 133 138 141 147 155 162 171 176 177 184 192 197 197 192 180 178 169 158 149 146 135 118 106 97 90 94 98 107 125 128 111 96 97 98 115 118 120 123 125 118 125 124 115 111 101 81 69 59 49 46 32 24 16 14 15 16 17 20 27 30 31 32 28 32 35 44 49 54 52 50 50 46 44 40 35 35 31 32 34 37
4 2 4 2 2 4 4 4 4 4 5 6 7 8 10 10 10 10 11 10 10 10 10 11 13 19 17 16 21 24 24 19 17 14 10 8 5 5 5 6 7 10 15 20 31 39 42 46 41 35 39 45 46 46 41 34 28 31 30 30 28 40 49 61 69 66 65 57 61 70 64 59 74 87 91 81 82 92 96 101 102 99 107 116 113 99 96 90 97 91 89 90 104 108 112 110 106 102 101 109 123 140 150 158 159 160 168 169 166 165 168 171 162 157 147 141 135 126 119 119 123 122 123 119 116 116 115 115 115 112 107 106 103 93 87 80 73 67 61 54 52 49 47 45 44 41 41 41 40 39 39 39 39 39 37 37 37 39 41 42 42 45 46 47 50 54 61 67 72 78 82 83 88 98 109 117 126 138 141 146 150 159 165 168 165 176 184 191 189 186 185 182 176 163 153 147 141 122 112 113 113 116 108 101 102 106 101 102 101 89 101 110 122 141 147 147 142 143 138 134 119 90 70 54 47 49 40 30 21 20 16 14 15 20 28 28 27 27 26 28 32 40 41 46 50 49 45 40 39 32 31 32 28 28 30 39
2 2 2 2 2 4 4 4 4 4 4 5 6 8 8 9 10 10 10 10 11 12 12 11 13 14 15 14 16 20 19 17 16 14 10 8 7 6 6 7 9 12 13 19 28 37 42 39 32 30 31 40 44 40 35 31 27 30 27 23 26 35 49 63 67 61 57 56 57 71 76 73 74 89 88 82 74 82 84 87 89 88 94 103 111 94 81 84 84 81 80 88 98 103 107 106 105 103 99 106 117 135 146 155 153 158 163 166 160 160 160 162 160 161 156 153 141 134 128 130 133 133 131 128 124 125 124 124 124 122 118 115 115 105 97 89 86 78 70 65 64 63 57 52 49 47 46 45 42 42 44 44 42 42 42 42 41 44 46 45 45 47 47 50 54 61 67 72 80 87 88 89 89 94 106 115 122 135 140 144 149 156 158 160 162 171 181 189 188 186 189 188 182 174 159 146 143 125 120 117 116 118 110 98 91 93 89 93 106 106 110 120 130 152 159 175 163 155 146 143 117 90 69 54 45 45 44 35 31 30 24 19 19 23 30 32 32 30 27 21 28 37 40 41 45 45 40 32 31 28 28 27 26 27 32 42
2 2 2 2 2 2 2 4 4 4 4 5 6 7 8 8 9 9 9 10 12 11 11 11 12 14 14 14 16 17 17 17 15 12 8 6 6 7 7 8 10 13 16 23 28 35 35 32 31 30 31 35 35 37 31 26 26 28 24 24 28 32 39 47 61 63 49 50 59 74 87 89 88 89 83 73 68 78 74 64 68 74 84 89 96 88 67 67 67 61 69 86 92 93 103 111 105 104 98 104 108 117 130 141 147 157 159 159 157 158 157 158 159 165 163 158 146 142 146 143 141 141 140 137 131 131 130 133 137 135 130 125 123 115 106 99 96 90 83 77 72 70 67 57 54 56 52 46 44 45 47 47 47 46 46 47 47 47 47 46 46 49 50 57 61 66 72 78 83 89 89 89 91 101 109 119 125 134 135 140 147 150 147 149 158 165 175 186 191 191 192 186 179 171 158 141 128 120 113 111 110 113 110 97 94 103 90 94 117 137 141 146 160 186 184 186 174 153 150 137 102 87 77 57 44 52 49 39 35 37 35 28 24 26 32 37 40 34 30 26 31 40 42 42 41 39 35 32 28 26 23 21 19 23 31 45
